ply
format ascii 1.0
element vertex 786
property float x
property float y
property float z
property float nx
property float ny
property float nz
property uchar diffuse_red
property uchar diffuse_green
property uchar diffuse_blue
end_header
3.49207 -6.09606 6.4542 0.536744 0.830379 0.14959 10 7 3
3.9598 -5.69953 6.43637 -0.0228497 0.602091 -0.7981 33 39 39
3.96182 -5.69483 6.43849 -0.546824 0.629317 -0.552217 29 36 37
3.97272 -5.68734 6.43851 -0.795233 0.461887 -0.392766 22 31 31
3.98167 -5.67173 6.43845 -0.926498 0.373926 -0.0422009 10 20 19
3.99577 -5.65223 6.42618 -0.836459 0.24806 -0.488675 8 18 17
4.19357 -5.57839 6.45005 -0.485832 0.630406 -0.605438 26 22 13
4.20184 -5.5582 6.44575 -0.663607 0.616212 -0.424156 31 27 18
4.23645 -5.54368 6.4535 -0.276607 0.464256 -0.841401 44 38 30
4.26031 -5.53846 6.46065 0.153056 0.768126 -0.621736 52 44 36
4.27223 -5.52553 6.4629 -0.0460531 0.679801 -0.731949 86 75 66
4.29524 -5.53503 6.46519 -0.255059 0.2629 -0.930499 78 66 54
4.31162 -5.54253 6.4756 0.321914 0.310407 -0.894438 80 68 54
4.31016 -5.53086 6.47279 0.16077 0.415327 -0.895352 83 70 57
4.33429 -5.53215 6.48116 -0.486872 0.865248 0.119586 70 57 46
4.37478 -5.52161 6.48659 0.586571 0.764183 -0.268252 35 25 17
4.38077 -5.54711 6.49777 0.603895 0.656665 -0.451776 35 26 18
4.41776 -5.56514 6.52195 0.484634 0.87104 0.0801172 48 33 23
4.43427 -5.55648 6.5186 0.490619 0.863079 0.11995 50 32 21
4.49596 -5.58779 6.55334 0.457334 0.444289 -0.770359 54 33 18
4.5004 -5.5835 6.54554 0.526779 0.494145 -0.69161 49 28 15
4.49085 -5.5635 6.53464 0.551003 0.569669 -0.609814 50 29 15
4.51872 -5.58104 6.5593 0.506289 0.478949 -0.717133 53 31 18
4.50835 -5.56993 6.54578 -0.150855 0.894272 -0.421333 50 29 15
4.52579 -5.57373 6.55623 0.117061 0.936634 -0.330171 49 28 13
4.55223 -5.59299 6.57721 0.51573 0.855417 0.0477974 51 30 17
4.57596 -5.61444 6.58132 0.521803 0.852339 0.0352022 44 24 12
4.59846 -5.60989 6.59951 0.532468 0.846287 -0.0165833 43 24 13
4.62417 -5.63629 6.60604 0.566622 0.819736 -0.0834985 40 22 12
4.65391 -5.65265 6.6201 0.578011 0.773272 -0.260681 35 20 10
4.66981 -5.65585 6.63336 0.443699 0.778106 -0.444614 25 13 6
4.72049 -5.69492 6.65725 0.467253 0.480772 -0.741979 6 5 1
4.71783 -5.70022 6.67364 0.495057 0.510476 -0.703088 8 6 2
4.74096 -5.71814 6.68033 0.159678 0.908925 0.385173 4 4 1
3.93532 -5.70751 6.44007 0.286791 0.606716 -0.741382 27 32 30
3.94909 -5.7007 6.44528 -0.379871 0.0745677 -0.922029 24 32 31
4.17323 -5.57377 6.46308 -0.767717 0.556473 -0.317724 31 27 18
4.20883 -5.53734 6.46245 -0.836553 0.5398 0.0937835 32 27 18
4.23362 -5.53259 6.45823 0.362117 0.318658 -0.875973 40 34 25
4.24537 -5.52688 6.46302 -0.157689 0.851079 -0.500799 54 46 38
4.26091 -5.52608 6.4712 -0.105237 0.508225 -0.85477 80 69 60
4.27488 -5.52253 6.47709 0.645562 0.525334 -0.554323 99 88 78
4.33601 -5.51832 6.4916 0.400389 0.887024 -0.229948 65 53 46
4.34888 -5.52121 6.5014 0.280508 0.9421 -0.183746 48 38 31
4.36515 -5.53607 6.49971 0.606559 0.67023 -0.427642 37 28 20
4.37415 -5.5227 6.50183 0.385243 0.912033 0.140653 43 30 22
4.4018 -5.5672 6.52847 0.506468 0.861763 0.0292334 48 32 23
4.3999 -5.5636 6.52498 0.500751 0.863828 0.0552184 47 30 24
4.3999 -5.5636 6.52498 0.500751 0.863828 0.0552184 47 30 24
4.40885 -5.56393 6.52634 0.548177 0.836093 0.0212319 49 32 23
4.49977 -5.5745 6.55626 0.469707 0.459193 -0.754 58 37 22
4.51316 -5.56988 6.56255 0.0476724 0.760996 -0.647003 62 39 25
4.51042 -5.58474 6.57071 0.30007 0.373648 -0.877693 63 41 26
4.52174 -5.57772 6.57863 0.431079 0.761081 -0.484691 68 44 30
4.53519 -5.58375 6.57473 0.53791 0.653952 -0.531977 61 38 23
4.55228 -5.59052 6.58612 0.164591 0.979069 -0.11972 62 39 25
4.56042 -5.59381 6.59554 0.534908 0.84476 -0.0159453 66 42 30
4.57247 -5.60621 6.59909 0.479751 0.870635 0.108788 57 35 24
4.57302 -5.60471 6.60125 0.133465 0.932527 0.335531 59 38 25
4.61094 -5.62135 6.62314 0.593745 0.784397 -0.179411 47 29 18
4.62384 -5.63808 6.62676 0.605964 0.751182 -0.26179 42 24 14
4.64149 -5.65217 6.63541 0.0392742 0.898506 0.4372 39 22 12
4.66096 -5.66206 6.64893 -0.0661854 0.966591 -0.247634 31 18 8
4.67802 -5.6683 6.66409 0.563183 0.791924 -0.235968 24 14 7
4.7195 -5.70758 6.69391 0.528734 0.796185 -0.294161 9 6 2
4.73499 -5.73005 6.69818 0.286684 0.937427 -0.197594 6 5 1
4.73499 -5.73005 6.69818 0.286684 0.937427 -0.197594 6 5 1
3.94891 -5.68817 6.45507 -0.703396 0.100555 -0.703649 9 18 17
3.97164 -5.67537 6.45223 -0.87783 0.461102 0.129613 6 15 13
4.16025 -5.56448 6.46719 0.527296 0.43841 -0.727843 42 37 30
4.16009 -5.56405 6.46698 0.540887 0.452536 -0.70898 42 37 30
4.20283 -5.55036 6.47829 -0.919823 0.372043 -0.124537 44 39 30
4.20877 -5.52507 6.47012 -0.538599 0.84255 0.00440812 50 43 35
4.22088 -5.52072 6.47591 0.00974795 0.999017 -0.0432426 73 65 56
4.23381 -5.52611 6.47052 0.0554531 0.849455 -0.524739 54 46 38
4.24811 -5.52839 6.47907 -0.194531 0.385181 -0.902105 70 61 52
4.26214 -5.5155 6.48155 0.136439 0.69321 -0.707704 82 70 62
4.27122 -5.49967 6.48296 0.26929 0.567174 -0.778329 72 60 53
4.31124 -5.5287 6.49976 0.670394 0.680262 -0.296338 106 93 85
4.30901 -5.5285 6.49603 0.62593 0.72454 -0.288536 108 95 87
4.30901 -5.5285 6.49603 0.62593 0.72454 -0.288536 108 95 87
4.30901 -5.5285 6.49603 0.62593 0.72454 -0.288536 108 95 87
4.31924 -5.50913 6.49891 0.364495 0.900122 -0.238588 84 72 67
4.33366 -5.51136 6.50691 0.307997 0.951387 -0.000189185 69 57 53
4.36211 -5.52095 6.50886 0.43553 0.896859 0.0771824 55 42 34
4.37536 -5.53038 6.52563 0.480255 0.873547 0.0791882 72 52 43
4.50666 -5.56602 6.58249 0.449752 0.479525 -0.753511 65 40 26
4.50438 -5.57406 6.57289 -0.159551 0.85768 -0.488804 64 41 26
4.52733 -5.56546 6.58339 0.354871 0.902969 0.242308 75 49 38
4.53702 -5.57769 6.59514 0.418429 0.886 0.199803 78 52 41
4.54486 -5.57322 6.59527 0.576117 0.79094 -0.206164 80 54 42
4.56914 -5.5942 6.60949 0.562225 0.82523 0.0538435 68 44 32
4.58452 -5.59675 6.61731 0.514775 0.856299 0.0419419 59 37 26
4.63726 -5.63988 6.64585 0.587827 0.73545 -0.337006 41 24 14
4.63909 -5.61921 6.64322 0.57014 0.794111 -0.210545 34 20 11
4.69832 -5.69012 6.69119 0.582962 0.700819 -0.411106 16 11 4
4.71387 -5.71721 6.70662 0.577218 0.665331 -0.473449 12 8 3
4.72578 -5.72441 6.71594 0.117024 0.869842 -0.479251 10 7 3
3.55209 -5.93475 6.45416 0.657122 0.753012 -0.034098 7 7 3
3.55417 -5.94003 6.45522 0.646498 0.75709 -0.0940968 6 7 2
4.19594 -5.55551 6.49397 -0.604704 0.542208 -0.58339 52 46 39
4.20522 -5.52206 6.48238 -0.0265264 0.984653 -0.172493 65 58 51
4.21986 -5.51683 6.48985 -0.167993 0.978881 0.116495 72 65 58
4.23355 -5.51763 6.48256 0.0710392 0.869066 -0.489569 90 81 72
4.25839 -5.51535 6.49662 0.467319 0.875189 0.125134 96 84 76
4.27519 -5.49492 6.49494 0.685118 0.616777 -0.387556 76 63 55
4.2881 -5.49312 6.48978 0.4514 0.823767 -0.342995 77 64 56
4.30072 -5.48512 6.49811 0.444031 0.679985 -0.583487 61 51 46
4.31734 -5.49765 6.51246 0.475389 0.743559 -0.47024 48 38 32
4.34697 -5.51107 6.51471 0.475191 0.87485 0.0939734 72 57 53
4.36107 -5.51718 6.53205 0.445027 0.885542 0.133294 86 66 59
4.37809 -5.52797 6.54022 0.516809 0.852132 0.0823382 78 54 46
4.38509 -5.53893 6.53747 0.603636 0.79635 0.0380823 67 48 37
4.41032 -5.53912 6.54776 0.279622 0.792577 -0.54188 78 53 40
4.42833 -5.54251 6.55745 -0.133804 0.528902 -0.838069 64 40 29
4.44448 -5.54341 6.56374 0.568781 0.728721 -0.381384 50 28 16
4.4811 -5.55286 6.58702 0.531676 0.517718 -0.67029 62 39 26
4.59907 -5.60121 6.63899 0.587855 0.794445 -0.15259 52 30 19
4.66295 -5.62857 6.66274 0.320417 0.912804 -0.253224 22 13 6
4.66194 -5.61982 6.65664 0.564263 0.79975 -0.204959 20 12 6
4.66295 -5.62857 6.66274 0.320417 0.912804 -0.253224 22 13 6
3.54167 -5.92431 6.46889 0.58419 0.810874 0.0347246 9 9 4
3.55517 -5.92378 6.46116 0.585922 0.8098 0.0303262 7 8 3
4.17745 -5.53685 6.4958 -0.720118 0.427417 -0.546576 33 30 24
4.1833 -5.51575 6.49194 -0.761825 0.411785 -0.500056 38 35 31
4.20283 -5.50942 6.49212 -0.00134039 0.936452 -0.350792 44 38 33
4.21909 -5.51703 6.50369 -0.0129475 0.998816 0.046881 42 36 32
4.22861 -5.50124 6.49056 0.622516 0.664783 -0.412962 80 71 65
4.24395 -5.50792 6.50332 0.28955 0.942239 -0.168366 77 70 62
4.28401 -5.46554 6.49673 0.581165 0.544056 -0.605186 74 65 58
4.30777 -5.47482 6.50106 0.68126 0.628672 -0.375041 47 37 31
4.32769 -5.48448 6.51754 0.579365 0.785526 -0.217452 58 45 38
4.38942 -5.52906 6.55632 0.270477 0.962496 0.0210696 68 43 34
4.41159 -5.52897 6.55893 0.11437 0.267392 -0.956777 78 53 40
4.411 -5.53147 6.56317 0.588725 0.620778 -0.517723 75 49 37
4.43125 -5.53726 6.57164 0.386794 0.874677 -0.292116 63 39 27
4.44012 -5.52853 6.576 0.306816 0.406022 -0.860819 54 32 20
4.45861 -5.54694 6.58238 0.356076 0.323575 -0.876647 52 30 18
4.51796 -5.5732 6.60871 0.609994 0.673031 -0.418254 67 40 31
4.52355 -5.54972 6.60318 0.50679 0.862064 -0.00299719 76 50 38
4.54296 -5.55731 6.60827 0.606698 0.794922 -0.00399037 79 52 41
4.56211 -5.57213 6.62205 0.492636 0.870047 0.0181295 69 42 29
4.5753 -5.56792 6.62648 0.393135 0.892863 0.219636 61 36 24
4.64408 -5.6253 6.67262 0.580771 0.76171 -0.287234 34 20 12
4.64423 -5.62016 6.67063 0.566344 0.799347 -0.200745 33 19 11
4.65524 -5.62104 6.68407 0.580971 0.757862 -0.296847 24 14 7
4.68891 -5.63956 6.68869 0.598311 0.761714 -0.248625 11 8 3
3.52973 -5.93048 6.47961 0.523416 0.844235 0.115338 8 7 2
3.54453 -5.91069 6.47769 0.250192 0.962559 0.104324 15 14 7
3.54669 -5.92028 6.48173 0.410023 0.877787 0.247732 15 14 7
3.587 -5.90466 6.4768 0.357671 0.883534 0.302388 5 5 2
4.21636 -5.5084 6.5149 0.552752 0.822534 0.133803 34 31 26
4.2161 -5.50831 6.51522 0.549736 0.824047 0.136884 33 31 26
4.2309 -5.51027 6.51012 -0.310361 0.950616 0.00236398 41 36 30
4.30697 -5.47093 6.51548 0.555686 0.819285 -0.141372 37 28 20
4.31507 -5.47922 6.52439 0.588861 0.599871 -0.541662 37 27 19
4.3396 -5.49035 6.5372 0.632607 0.751451 -0.187429 50 35 27
4.37317 -5.52281 6.5645 0.438914 0.888045 0.136863 62 42 32
4.39981 -5.52865 6.57051 0.412665 0.856017 -0.311354 58 35 24
4.40671 -5.53106 6.57537 0.403208 0.898247 0.174861 59 36 25
4.43052 -5.53566 6.58083 0.590671 0.630527 -0.503531 68 45 32
4.4341 -5.52573 6.58683 0.530808 0.519715 -0.669432 59 39 25
4.44276 -5.52732 6.59257 0.580307 0.608075 -0.541747 53 33 20
4.47961 -5.52549 6.59544 0.478254 0.870124 0.118987 71 47 35
4.50594 -5.54123 6.61577 0.280812 0.958559 -0.0480463 65 42 27
4.49721 -5.52812 6.60745 0.464323 0.882529 0.0744752 66 41 28
4.51726 -5.53818 6.61982 0.478058 0.876931 0.049529 68 41 30
4.52237 -5.53587 6.61094 0.320039 0.897468 0.303523 76 49 40
4.53475 -5.54744 6.63037 0.479497 0.875639 0.0577831 81 54 42
4.54805 -5.55132 6.63843 0.47063 0.74158 -0.478087 87 60 46
4.56842 -5.5495 6.63695 -0.033531 0.902458 0.429471 78 52 38
4.61631 -5.59282 6.6627 0.00381642 0.880548 0.473943 48 29 19
4.61974 -5.59969 6.6664 0.168424 0.910668 0.377251 49 30 19
4.64007 -5.61408 6.69259 0.584836 0.750775 -0.30709 37 22 12
4.63777 -5.61251 6.69149 0.583326 0.759772 -0.287188 40 23 14
4.65612 -5.62361 6.68987 0.584343 0.746757 -0.317644 25 14 6
4.69547 -5.65055 6.72027 0.586121 0.729524 -0.352501 9 7 2
4.70104 -5.66337 6.7287 0.586725 0.714454 -0.381196 8 7 2
4.69836 -5.65551 6.72299 0.584187 0.739372 -0.334746 8 7 2
4.71284 -5.67859 6.73032 0.586218 0.709887 -0.390396 7 6 1
3.55023 -5.93255 6.50461 0.329009 0.885927 0.326936 18 14 6
3.55327 -5.91836 6.49718 0.272708 0.889978 0.365472 16 13 5
3.55865 -5.91991 6.50098 0.505956 0.849919 0.14713 15 13 4
3.5751 -5.91467 6.49735 0.408506 0.893559 0.186212 11 11 5
4.3712 -5.51932 6.58414 0.39397 0.897657 0.197483 36 23 13
4.38578 -5.5183 6.58425 0.407792 0.896315 0.17414 48 33 21
4.38957 -5.52829 6.58151 0.495923 0.867258 0.0438554 55 37 26
4.41108 -5.51811 6.58288 0.573809 0.58561 -0.572541 53 33 19
4.40322 -5.52494 6.59198 0.41942 0.89413 0.156904 48 31 19
4.40088 -5.52471 6.58884 0.443356 0.887666 0.124436 49 32 20
4.4261 -5.51448 6.59731 0.711143 0.640203 -0.290544 43 29 16
4.46026 -5.52604 6.60555 0.513517 0.85571 0.0637201 49 29 19
4.4831 -5.51558 6.60829 0.559443 0.827727 -0.0434914 61 39 28
4.50245 -5.53765 6.63337 0.419122 0.894546 0.155319 50 26 18
4.56231 -5.54861 6.6486 0.382628 0.727818 -0.569102 74 47 33
4.59482 -5.57524 6.67114 0.601769 0.766997 -0.222686 61 39 26
4.59709 -5.59391 6.68335 0.461034 0.424818 -0.779088 65 42 28
4.65773 -5.62539 6.71691 0.446372 0.891477 0.0775919 25 14 6
4.68182 -5.64659 6.72787 0.565177 0.7997 -0.20262 13 9 3
4.69953 -5.64507 6.73999 0.603467 0.721521 -0.339463 6 5 1
3.57718 -5.93827 6.51968 0.376138 0.877306 -0.298085 14 13 7
4.34066 -5.48775 6.56211 0.526964 0.847393 0.0650672 38 27 17
4.35142 -5.49638 6.58321 0.51788 0.855405 0.00907055 25 17 8
4.3833 -5.5073 6.59371 0.463868 0.878726 0.112548 32 21 12
4.40672 -5.51487 6.60258 0.473588 0.880585 0.0168644 36 25 14
4.48841 -5.50991 6.62324 0.555939 0.830333 -0.0384512 46 27 17
4.5149 -5.53263 6.6391 0.479195 0.8765 0.0460543 48 26 13
4.51677 -5.53765 6.65166 0.381285 0.8937 0.23648 43 25 14
4.51494 -5.53255 6.64914 0.487625 0.868076 0.093089 43 25 14
4.54771 -5.53879 6.65247 0.588685 0.68069 -0.436018 70 45 32
4.53806 -5.5375 6.6598 0.532721 0.843267 -0.0714753 54 32 21
4.57145 -5.56633 6.67781 0.587142 0.703672 -0.400139 54 31 22
4.58983 -5.58746 6.69226 0.551532 0.552203 -0.625207 54 32 21
4.61429 -5.59193 6.70425 0.371537 0.333063 -0.86662 51 32 21
4.61787 -5.58611 6.69357 0.407153 0.846349 -0.343394 50 31 20
4.65869 -5.63465 6.73003 0.522447 0.849945 -0.0681454 28 17 8
4.66891 -5.62328 6.73651 0.543478 0.766004 -0.343321 14 10 4
4.34793 -5.49286 6.59454 0.693663 0.671863 -0.259675 25 18 6
4.34904 -5.49631 6.59667 0.691935 0.671312 -0.265642 25 18 6
4.36854 -5.51673 6.6001 0.40732 0.896262 0.175512 24 15 7
4.36905 -5.51768 6.60055 0.443523 0.886823 0.129738 22 15 7
4.36905 -5.51768 6.60055 0.443523 0.886823 0.129738 22 15 7
4.38444 -5.51869 6.60488 0.409596 0.895517 0.174013 24 15 7
4.40433 -5.51894 6.61515 0.614135 0.603985 -0.507977 22 14 7
4.41128 -5.51778 6.61369 0.552879 0.720181 -0.419123 27 19 10
4.47134 -5.50323 6.62665 0.465874 0.874934 0.132107 29 19 10
4.52999 -5.52313 6.65217 0.460456 0.884731 0.0723251 51 30 19
4.55007 -5.53565 6.67615 0.511871 0.858594 -0.0283449 50 30 20
4.55762 -5.53063 6.66569 0.335222 0.856445 -0.392592 53 32 20
4.57214 -5.53204 6.67601 0.500074 0.494074 -0.711208 47 27 16
4.63119 -5.58726 6.71752 0.539033 0.536384 -0.649412 41 26 16
4.63811 -5.60747 6.72335 0.555557 0.775078 -0.301015 41 25 16
4.66479 -5.62913 6.75281 0.513466 0.518426 -0.683804 20 13 5
4.66665 -5.62321 6.75187 0.540237 0.516189 -0.6646 16 11 5
4.6807 -5.64834 6.76529 0.532741 0.528361 -0.661077 13 9 5
4.69574 -5.66472 6.77895 0.487076 0.481643 -0.728545 5 5 2
4.70909 -5.65893 6.78017 0.586487 0.646638 -0.487742 4 5 1
3.5099 -5.93646 6.53094 -0.607039 0.789784 -0.0880063 22 15 7
3.52089 -5.91808 6.52717 -0.498821 0.767931 -0.401821 23 14 6
3.5314 -5.89927 6.52646 -0.641137 0.600337 -0.478057 19 11 2
3.57876 -5.85541 6.52292 -0.219979 0.0707364 -0.972937 4 4 0
4.3819 -5.5532 6.63942 0.401706 0.896894 0.184969 13 11 3
4.39353 -5.5448 6.63909 0.329232 0.893473 0.30547 11 7 1
4.41777 -5.52918 6.6424 0.50394 0.859384 0.0866165 10 8 2
4.431 -5.5678 6.66577 0.597126 0.564248 -0.570144 12 9 3
4.46418 -5.52575 6.65406 0.43997 0.881617 0.170815 11 9 2
4.45994 -5.4736 6.63019 0.478946 0.857471 0.188027 14 11 3
4.49269 -5.52078 6.65884 0.343027 0.933006 0.108778 23 14 6
4.49274 -5.52049 6.65879 0.363771 0.926179 0.0993091 23 14 6
4.50714 -5.52142 6.66523 0.419743 0.892097 0.167268 25 16 7
4.52318 -5.53802 6.67684 0.489624 0.871651 0.0222105 29 17 8
4.58336 -5.54416 6.70497 0.470389 0.876351 0.103648 43 25 15
4.5759 -5.53872 6.69457 0.173621 0.163295 -0.97118 43 24 14
4.5759 -5.53872 6.69457 0.173621 0.163295 -0.97118 43 24 14
4.5759 -5.53872 6.69457 0.173621 0.163295 -0.97118 43 24 14
4.60071 -5.55604 6.71937 0.58899 0.737071 -0.331387 45 28 18
4.59659 -5.55881 6.71388 0.525995 0.847572 -0.0703651 47 28 19
4.61771 -5.57717 6.72108 0.518848 0.509171 -0.686689 46 29 17
4.60642 -5.5676 6.72551 0.145378 0.176055 -0.973586 46 29 18
4.6271 -5.58171 6.72926 0.505123 0.471303 -0.722996 41 25 15
4.63965 -5.58336 6.74001 0.513598 0.493725 -0.70175 26 15 7
4.63675 -5.57554 6.73677 0.409295 0.362864 -0.837142 26 16 8
4.63834 -5.57572 6.73561 0.516089 0.478976 -0.710095 25 14 7
4.65483 -5.61721 6.74848 0.580849 0.704709 -0.40743 25 15 7
4.65288 -5.57861 6.74583 0.308132 0.278957 -0.909526 9 7 2
4.67709 -5.62902 6.76065 0.521246 0.48902 -0.699402 11 9 3
4.69657 -5.63373 6.77266 0.497327 0.460494 -0.735263 4 4 1
3.51917 -5.91341 6.53782 -0.620009 0.783731 -0.0367967 23 13 4
3.54664 -5.89651 6.53616 0.348537 0.180737 -0.919704 22 16 6
3.55931 -5.88088 6.53751 0.0147108 0.0870341 -0.996097 16 14 7
4.47942 -5.59897 6.70943 0.368798 0.893689 0.255554 9 8 2
4.48567 -5.53966 6.68266 0.427783 0.892502 0.142976 9 7 2
4.49934 -5.53835 6.68805 0.0995514 0.910559 0.401212 12 7 1
4.52263 -5.53672 6.69933 0.526262 0.849858 -0.0280995 22 14 5
4.52657 -5.53096 6.69259 0.26479 0.915471 0.302983 27 17 8
4.54148 -5.53154 6.69765 0.357398 0.910659 0.207285 34 20 11
4.54601 -5.51723 6.69464 0.441885 0.884894 0.147313 32 18 8
4.57087 -5.54313 6.71321 0.423292 0.896216 0.132743 33 17 8
4.58658 -5.54741 6.72393 0.0670106 0.939812 -0.335057 37 21 11
4.60447 -5.55729 6.73756 0.0697052 0.712288 -0.698417 37 21 13
4.62194 -5.56412 6.73883 0.514035 0.47273 -0.715747 35 21 13
4.65205 -5.56874 6.74769 0.323279 0.290517 -0.900606 7 6 2
4.64741 -5.55999 6.74398 0.538829 0.511674 -0.669218 8 7 2
4.65128 -5.56829 6.74833 0.536033 0.508371 -0.673964 8 6 2
3.50346 -5.93046 6.55285 0.147383 0.649103 -0.746287 33 23 14
3.52601 -5.90065 6.55105 -0.666341 0.729372 0.154941 22 14 5
3.54861 -5.8742 6.54698 -0.833067 0.552709 0.0226292 20 17 10
3.54879 -5.87401 6.54504 -0.525911 0.393615 -0.75398 20 18 10
3.56095 -5.86735 6.55191 -0.743778 0.530374 -0.406814 8 8 3
4.29777 -5.51908 6.63095 0.570385 0.816366 0.0905905 19 14 7
4.39164 -5.63561 6.70835 0.592258 0.758695 -0.271318 18 16 7
4.40491 -5.66673 6.72709 -0.94139 0.336469 -0.0239341 18 15 6
4.42716 -5.66035 6.73074 -0.512986 0.75366 0.410903 10 8 2
4.50868 -5.53093 6.70845 0.136773 0.907957 0.396114 12 7 2
4.53673 -5.55073 6.7242 0.401261 0.892878 0.20435 20 11 2
4.59364 -5.56069 6.74814 0.424352 0.89665 0.126267 31 18 9
4.61048 -5.55703 6.74448 0.524474 0.483548 -0.700791 34 19 11
4.62037 -5.56087 6.74895 0.500951 0.330087 -0.800057 36 22 13
4.62543 -5.47251 6.71713 0.312487 0.28008 -0.907693 6 6 2
4.62543 -5.47251 6.71713 0.312487 0.28008 -0.907693 6 6 2
3.51341 -5.90997 6.56222 -0.195783 0.980224 -0.0288149 22 13 3
3.52644 -5.9044 6.56869 -0.626487 0.676775 0.386639 19 11 4
3.54204 -5.87885 6.56371 -0.854905 0.510609 0.0917396 12 10 4
4.28171 -5.53399 6.64818 0.450492 0.890783 0.0596871 14 12 3
4.27573 -5.49814 6.63571 0.398458 0.87101 0.287356 14 11 2
4.30435 -5.54143 6.66304 0.419333 0.902587 0.0974529 10 8 1
4.32372 -5.5561 6.66427 0.574742 0.817924 -0.0259155 14 11 3
4.35436 -5.56697 6.69042 0.519217 0.852142 -0.0653266 9 8 3
4.39728 -5.60363 6.71197 0.67103 0.632165 -0.38741 11 10 2
4.43417 -5.62042 6.73967 0.237511 0.809825 -0.536443 7 7 1
4.50413 -5.54955 6.72733 -0.923795 0.382301 0.0212032 12 8 1
4.51567 -5.53936 6.73242 -0.899983 0.42817 0.0818641 15 10 1
4.51593 -5.54028 6.73291 -0.904519 0.420328 0.0719049 15 11 2
4.61214 -5.57592 6.76554 0.583613 0.651416 -0.484823 33 20 11
4.62461 -5.50938 6.74539 0.606496 0.665445 -0.435139 10 8 3
4.64661 -5.52992 6.76744 0.372338 0.348836 -0.860045 5 5 2
4.64306 -5.52327 6.76402 0.315363 0.283129 -0.90575 5 5 2
3.49155 -5.9299 6.57535 -0.888056 0.307712 -0.341569 27 17 9
3.50075 -5.91311 6.576 -0.738283 0.413061 -0.533216 23 12 3
3.55246 -5.85292 6.56049 -0.893057 0.449087 -0.0277495 6 6 2
3.56526 -5.85218 6.57025 -0.814965 0.552379 0.175241 3 4 1
4.21696 -5.53 6.6447 0.384575 0.911102 0.148309 24 20 11
4.24262 -5.51558 6.6404 -0.744119 0.604038 0.285349 21 17 8
4.26607 -5.52769 6.65118 0.556099 0.787964 -0.264324 18 16 7
4.30451 -5.55052 6.67898 0.536368 0.44597 -0.716534 13 11 3
4.30451 -5.55052 6.67898 0.536368 0.44597 -0.716534 13 11 3
4.30451 -5.55052 6.67898 0.536368 0.44597 -0.716534 13 11 3
4.3154 -5.54681 6.68268 0.550531 0.825177 -0.126483 13 10 3
4.33084 -5.55196 6.6926 0.555066 0.818172 -0.14999 11 9 3
4.41325 -5.61576 6.73645 0.6328 0.72071 -0.283092 7 7 1
4.43625 -5.59967 6.74253 0.608742 0.738988 -0.288669 10 10 4
4.50142 -5.51495 6.73263 -0.912149 0.409834 -0.00461294 17 11 2
4.58225 -5.57414 6.7723 0.527287 0.844305 0.0954893 26 16 6
4.59566 -5.55117 6.77674 0.383057 0.892429 0.238406 30 19 10
4.59566 -5.55117 6.77674 0.383057 0.892429 0.238406 30 19 10
4.64616 -5.53678 6.78464 0.318864 0.298221 -0.899661 4 3 1
3.48043 -5.9431 6.59462 -0.827417 0.234023 -0.510503 16 10 4
3.48899 -5.91953 6.59203 -0.79172 0.395361 -0.465692 28 20 12
3.49821 -5.90298 6.59281 -0.884986 0.465498 -0.010527 20 12 5
3.55859 -5.85451 6.58683 -0.892761 0.449974 -0.0224107 4 5 1
4.24872 -5.51287 6.6544 0.511297 0.858649 -0.0360242 30 25 16
4.26771 -5.53343 6.67252 0.260066 0.963892 -0.0572619 31 26 17
4.28228 -5.53172 6.67999 -0.0269919 0.981261 0.190781 31 27 16
4.29577 -5.52996 6.68622 0.192716 0.979523 0.0582711 32 28 18
4.34226 -5.55341 6.70535 0.602271 0.734143 -0.313536 13 11 4
4.35798 -5.55574 6.7175 0.415491 0.909539 -0.0103179 13 10 5
4.3778 -5.57346 6.71979 0.343263 0.923056 0.173605 7 6 1
4.39479 -5.55665 6.72261 0.436431 0.880867 0.183306 9 8 3
4.44116 -5.58915 6.75578 0.517225 0.851837 -0.082772 13 12 5
4.45992 -5.59657 6.77131 0.562901 0.819269 -0.109276 15 11 4
4.48368 -5.61639 6.78648 0.390952 0.900374 0.191006 17 13 6
4.5147 -5.56365 6.77295 -0.935596 0.348976 0.0536337 20 13 3
3.47764 -5.93039 6.61021 -0.895328 0.328647 -0.30063 15 11 5
3.47371 -5.93104 6.61362 -0.838641 0.243915 -0.487019 12 8 3
3.48672 -5.91221 6.61021 -0.89945 0.427647 -0.0900394 15 10 5
4.19241 -5.53072 6.66974 0.394599 0.893846 0.212909 21 17 9
4.1865 -5.50766 6.64595 0.523008 0.851737 0.0317393 23 20 10
4.20639 -5.53974 6.66671 0.444349 0.892287 0.0798557 24 22 11
4.20737 -5.54204 6.66798 0.420281 0.900626 0.110624 24 21 13
4.21965 -5.53922 6.67037 0.391827 0.909054 0.141748 26 21 13
4.22989 -5.5314 6.66937 0.362238 0.916273 0.170962 27 22 14
4.24285 -5.52918 6.67197 0.35276 0.918362 0.179364 28 23 14
4.26183 -5.52213 6.68279 0.232041 0.900622 0.367472 28 20 12
4.28103 -5.5297 6.69676 0.253 0.902866 0.347597 27 21 13
4.28069 -5.53122 6.69582 0.0262389 0.963701 0.26569 27 23 13
4.29184 -5.51578 6.6958 0.405584 0.907364 0.110418 31 26 17
4.30946 -5.53087 6.69393 0.342747 0.937162 -0.0652081 31 26 17
4.3258 -5.53927 6.70602 0.439866 0.888766 -0.128888 31 26 17
4.33221 -5.54824 6.7169 0.604636 0.727804 -0.323599 33 28 19
4.34951 -5.54301 6.71713 0.621762 0.691351 -0.368031 23 18 11
4.3644 -5.54541 6.7253 0.496574 0.866221 0.0554618 20 16 9
4.38525 -5.55766 6.73488 0.493433 0.796039 -0.350493 14 11 4
4.39676 -5.55338 6.74312 0.426135 0.889367 -0.165634 14 11 4
4.41147 -5.55725 6.75329 0.405694 0.909472 0.0909552 11 9 2
4.52284 -5.56488 6.78372 -0.938234 0.343028 0.0452595 20 13 4
4.64893 -5.54843 6.82182 0.610514 0.468487 -0.638587 6 7 2
4.194 -5.54491 6.6858 0.334663 0.920153 0.203271 23 20 11
4.2037 -5.53735 6.68501 0.418159 0.901515 0.111421 21 16 9
4.22724 -5.53001 6.68772 -0.120895 0.879178 0.460902 21 14 7
4.25881 -5.51905 6.69816 0.340809 0.921588 0.185809 22 15 8
4.27607 -5.52231 6.70772 0.182379 0.954908 0.234284 19 14 5
4.30802 -5.52451 6.71164 0.348463 0.936131 0.0472421 30 25 15
4.32237 -5.52805 6.72119 0.346185 0.92228 0.171919 33 27 17
4.33271 -5.53006 6.71778 0.385428 0.91417 0.125456 36 30 20
4.35603 -5.54844 6.73469 0.409033 0.907398 -0.096542 33 28 18
4.36792 -5.54093 6.73754 0.392696 0.89288 -0.220352 32 27 18
4.38437 -5.54759 6.75187 0.608613 0.740489 -0.285074 30 25 16
4.38349 -5.54676 6.74907 0.585624 0.792206 -0.17162 29 24 16
4.42468 -5.55534 6.75796 0.304937 0.93097 0.20077 11 8 1
4.4709 -5.59477 6.79566 0.498352 0.865211 -0.0552802 12 8 2
4.47805 -5.60537 6.80391 0.473626 0.877705 0.0728806 12 8 2
4.11741 -5.39015 6.60685 0.514015 0.857463 -0.0233643 27 24 15
4.18875 -5.53013 6.68839 0.296883 0.904007 0.307623 26 22 15
4.20407 -5.5308 6.70153 0.50662 0.860231 0.0577739 25 20 12
4.20243 -5.52955 6.69212 0.425765 0.88799 0.173775 23 18 10
4.24588 -5.52896 6.70535 0.473909 0.880146 0.0274417 23 16 9
4.28185 -5.53499 6.72265 0.263655 0.930906 0.252784 21 16 7
4.26919 -5.52514 6.72177 0.430459 0.88666 0.168933 26 19 11
4.29087 -5.51873 6.72103 0.535007 0.84484 -0.00365464 22 17 9
4.31421 -5.52265 6.72907 0.174177 0.906307 0.385059 22 15 8
4.31715 -5.53857 6.74049 -0.0334042 0.904492 0.425181 22 17 8
4.33206 -5.53151 6.73911 0.425659 0.889852 0.164248 26 20 11
4.33691 -5.5367 6.7472 0.359123 0.90151 0.241476 25 19 10
4.367 -5.53427 6.75437 0.457319 0.888884 0.0273004 35 29 19
4.41226 -5.56136 6.77673 0.483582 0.87496 -0.0243601 21 17 7
4.42783 -5.56705 6.78641 0.248399 0.967778 0.0412636 15 11 3
4.42499 -5.50088 6.76083 -0.263011 0.835268 0.482859 14 9 3
3.7777 -5.77963 6.68991 -0.887097 0.447111 -0.114675 8 8 4
3.78067 -5.74017 6.67452 -0.763903 0.645157 -0.015011 15 14 7
4.0652 -5.27024 6.55426 -0.329332 0.0170437 -0.94406 31 26 19
4.18856 -5.53496 6.7143 0.31335 0.905397 0.286475 30 27 19
4.18856 -5.53496 6.7143 0.31335 0.905397 0.286475 30 27 19
4.20477 -5.53802 6.70948 0.506482 0.860293 0.0580694 25 20 13
4.20477 -5.53802 6.70948 0.506482 0.860293 0.0580694 25 20 13
4.21324 -5.53522 6.71869 0.437673 0.885612 0.155349 25 20 12
4.25234 -5.49811 6.70622 0.52139 0.851396 -0.0572565 27 20 12
4.30464 -5.51788 6.74566 0.236155 0.905022 0.353788 26 19 11
4.35449 -5.53541 6.77216 0.275252 0.933154 0.231213 25 19 9
4.37788 -5.54169 6.77583 0.447827 0.88543 0.124358 29 22 13
4.3953 -5.55177 6.78775 0.483335 0.875235 -0.0187487 32 26 16
4.41468 -5.56646 6.80223 0.372152 0.925684 -0.0679146 30 25 16
4.64638 -5.64763 6.92152 0.577389 0.634151 -0.51427 18 13 5
4.68552 -5.67366 6.9342 0.408939 0.367043 -0.835492 5 4 1
3.50514 -5.93071 6.68239 -0.0112544 0.0849538 -0.996321 12 8 3
3.76669 -5.77219 6.69875 -0.632487 0.774386 -0.0169457 7 7 2
4.17453 -5.48709 6.70423 0.509239 0.859155 0.05029 32 28 21
4.20383 -5.52291 6.7182 0.526471 0.845802 0.0863005 29 24 16
4.25055 -5.51711 6.73501 0.459377 0.881004 0.113156 25 17 8
4.30301 -5.4772 6.73129 0.540605 0.833688 -0.11274 26 19 11
4.3781 -5.54174 6.79858 0.482705 0.875627 -0.0165375 27 18 10
4.38036 -5.54247 6.79676 -0.103474 0.986696 0.125399 26 18 9
4.38036 -5.54247 6.79676 -0.103474 0.986696 0.125399 27 18 10
4.38036 -5.54247 6.79676 -0.103474 0.986696 0.125399 27 18 10
4.41569 -5.56716 6.8232 0.544704 0.500894 -0.672608 27 21 12
4.66696 -5.60228 6.91773 0.313114 0.277799 -0.908178 3 2 0
4.67822 -5.6402 6.94109 0.371866 0.329116 -0.867985 3 3 0
3.50234 -5.89481 6.6809 -0.789478 0.570396 -0.226657 16 10 5
3.51741 -5.91374 6.68585 -0.151589 0.193546 -0.96931 9 6 2
3.76367 -5.75284 6.69351 -0.853838 0.499341 -0.147037 8 9 3
3.77391 -5.72474 6.68328 -0.599795 0.693576 -0.398998 19 17 10
4.18013 -5.49149 6.71425 0.516873 0.849976 0.101898 33 28 21
4.20695 -5.54659 6.75355 0.575075 0.812997 0.0912405 32 27 19
4.25513 -5.51049 6.74813 0.545261 0.837583 -0.0338387 26 18 8
4.26428 -5.5113 6.76148 0.380744 0.913516 0.143257 28 18 9
4.30505 -5.49066 6.76532 0.552308 0.821422 -0.142204 29 18 10
4.34714 -5.53801 6.78844 0.360679 0.92079 0.148515 26 17 8
4.34714 -5.53801 6.78844 0.360679 0.92079 0.148515 26 17 8
4.38774 -5.55971 6.82457 0.384509 0.916019 0.114289 29 19 12
4.38774 -5.55971 6.82457 0.384509 0.916019 0.114289 29 19 12
4.38774 -5.55971 6.82457 0.384509 0.916019 0.114289 28 18 12
4.40834 -5.57027 6.83429 0.409328 0.338516 -0.847265 26 18 9
4.43562 -5.57075 6.84063 0.490221 0.417481 -0.765109 13 9 1
4.56623 -5.5514 6.86932 0.611821 0.623065 -0.487304 32 20 10
4.60656 -5.62032 6.92594 0.293489 0.254898 -0.921353 30 20 10
4.62088 -5.62371 6.92016 0.056284 0.315094 -0.94739 24 17 7
4.63072 -5.62115 6.93325 0.268281 0.236181 -0.93394 14 10 4
4.65748 -5.58984 6.92375 0.298517 0.26299 -0.917455 3 3 1
3.50066 -5.88756 6.6934 -0.219714 0.971688 -0.0868873 18 13 6
3.51602 -5.89873 6.69404 0.0656339 0.90581 -0.41857 11 8 3
3.53408 -5.83406 6.6789 -0.822512 0.549263 0.147595 6 5 1
3.76888 -5.73342 6.71186 -0.718335 0.687915 -0.103768 19 18 12
4.17205 -5.49449 6.72954 0.53039 0.847606 0.0158201 35 30 23
4.19376 -5.53881 6.75874 0.57447 0.818526 6.34789e-006 36 31 25
4.19416 -5.55247 6.76989 0.647859 0.761677 -0.0113018 38 34 28
4.2489 -5.51135 6.77251 0.578772 0.815126 0.0243408 32 24 16
4.26312 -5.50982 6.76479 0.542745 0.839303 -0.0316066 28 19 9
4.29553 -5.58243 6.82037 0.59296 0.802967 -0.0603536 27 17 8
4.29472 -5.5818 6.81986 0.348573 0.93526 0.0615296 27 16 7
4.33698 -5.52167 6.7973 0.32332 0.928048 0.184907 28 17 8
4.32726 -5.53084 6.80011 0.438347 0.897017 0.0566832 26 15 7
4.32726 -5.53084 6.80011 0.438347 0.897017 0.0566832 26 15 7
4.42809 -5.57329 6.85147 0.558585 0.476008 -0.679263 14 9 2
4.41431 -5.54558 6.84362 0.628863 0.718542 -0.297032 18 11 5
4.44481 -5.56344 6.85885 0.554296 0.472553 -0.685164 11 8 1
4.54048 -5.6192 6.91728 0.702415 0.661264 -0.263331 41 26 13
4.54113 -5.62132 6.91842 0.700642 0.662393 -0.26521 41 26 13
4.56556 -5.57174 6.90811 0.578418 0.584626 -0.568898 39 24 13
4.58095 -5.57534 6.91384 0.54585 0.518021 -0.658561 33 22 11
4.58773 -5.58614 6.92036 0.374303 0.307219 -0.874937 33 22 11
4.6039 -5.6064 6.92516 0.336766 0.288982 -0.896146 30 19 11
4.6039 -5.6064 6.92516 0.336766 0.288982 -0.896146 30 19 11
4.61486 -5.59469 6.93507 0.337228 0.27498 -0.900368 11 8 2
3.47551 -5.89931 6.69694 -0.0434621 0.989207 0.139934 15 7 1
3.48942 -5.89088 6.70211 -0.0890487 0.974357 0.206635 15 7 2
3.49921 -5.87752 6.70349 0.046102 0.962632 -0.266861 20 14 7
3.5126 -5.87633 6.69684 -0.276447 0.960239 -0.0389684 13 9 4
3.51507 -5.86802 6.69194 -0.68437 0.13357 -0.716796 11 7 3
3.5267 -5.87392 6.70656 -0.320757 0.0655306 -0.944892 8 4 1
3.53396 -5.83258 6.69468 -0.416993 0.908718 -0.0186677 7 4 1
3.53406 -5.83315 6.69502 -0.414669 0.909568 -0.027118 8 4 1
4.27627 -5.56884 6.8202 0.567558 0.818703 -0.0871939 28 19 11
4.3128 -5.50667 6.80259 0.264021 0.934732 0.237844 28 15 7
4.37715 -5.53752 6.83587 0.523167 0.850946 0.046771 29 16 9
4.37715 -5.53752 6.83587 0.523167 0.850946 0.046771 29 16 9
4.38072 -5.53369 6.83458 0.489183 0.866442 0.0998947 29 16 9
4.43516 -5.55945 6.8669 0.375841 0.63544 -0.674507 15 8 1
4.45433 -5.56593 6.88293 0.58703 0.523379 -0.617632 25 14 5
4.52566 -5.52504 6.88419 0.601338 0.683072 -0.414494 45 28 16
4.55869 -5.56124 6.90902 0.360249 0.29146 -0.886155 41 26 14
4.56708 -5.55972 6.91947 0.494404 0.436211 -0.751854 31 20 11
4.58701 -5.57986 6.92061 0.409478 0.341422 -0.846025 30 20 10
4.57757 -5.57224 6.92873 0.372069 0.302056 -0.877682 26 17 8
4.58102 -5.56755 6.91422 0.413771 0.359388 -0.836441 30 20 10
4.59778 -5.58896 6.93033 0.590988 0.696318 -0.407277 22 15 7
4.61244 -5.55323 6.93074 0.4059 0.339215 -0.848633 3 3 1
4.62883 -5.57687 6.93576 0.367581 0.247636 -0.896416 4 4 1
3.4631 -5.91289 6.71151 0.407789 0.25174 -0.877687 23 15 7
3.49411 -5.89005 6.70968 -0.871475 0.27262 -0.407687 16 9 2
3.50356 -5.87302 6.70945 -0.463948 0.776822 -0.425794 21 15 8
3.50163 -5.88448 6.71001 -0.501261 0.0794149 -0.861644 21 14 8
3.51254 -5.8706 6.71016 -0.0192315 0.930135 -0.366715 15 9 5
3.51533 -5.86104 6.70816 -0.7128 0.527632 -0.462083 13 7 3
3.52357 -5.85487 6.71183 -0.48593 0.873586 0.0268432 9 5 1
3.75193 -5.7319 6.73274 -0.894137 0.244107 -0.375407 9 9 3
4.27556 -5.55931 6.82208 0.137471 0.905018 0.402548 27 19 9
4.28757 -5.57624 6.84149 0.518008 0.854888 0.0288582 31 22 11
4.2853 -5.57035 6.84444 0.434332 0.889644 0.141028 31 23 12
4.34486 -5.52737 6.83816 0.50054 0.425786 -0.753768 32 18 9
4.36755 -5.54475 6.8547 0.406707 0.904143 -0.130822 35 21 12
4.3766 -5.53241 6.85355 0.257358 0.911826 0.319907 36 21 12
4.39626 -5.53822 6.86598 0.541252 0.839533 -0.0472195 37 22 13
4.43867 -5.55384 6.88443 0.468474 0.36818 -0.803104 35 22 12
4.45442 -5.55971 6.88263 0.579135 0.510018 -0.635991 29 16 8
4.54561 -5.54382 6.91219 0.600334 0.678705 -0.423036 40 26 15
4.5579 -5.5568 6.92796 0.531219 0.498489 -0.685066 31 19 12
4.59008 -5.57346 6.94428 0.591828 0.689908 -0.416853 8 6 1
4.59612 -5.56884 6.9503 0.468633 0.403873 -0.785665 4 3 0
4.60047 -5.57701 6.95326 0.358443 0.302961 -0.883025 4 3 0
4.61041 -5.54635 6.93365 0.407613 0.354006 -0.841743 3 2 1
4.59865 -5.53032 6.93255 0.446371 0.331016 -0.831373 3 3 1
4.59901 -5.53343 6.93225 0.400625 0.345127 -0.848756 3 2 0
4.61878 -5.57182 6.95173 0.424033 0.356321 -0.832605 3 3 1
4.61878 -5.57182 6.95173 0.424033 0.356321 -0.832605 3 2 0
3.50444 -5.85768 6.71864 -0.531059 0.706594 -0.467655 19 13 8
3.49761 -5.87288 6.7205 -0.800169 0.599533 0.0170469 18 11 5
3.51111 -5.85948 6.72041 -0.411926 0.903618 -0.117437 15 10 5
3.51781 -5.85138 6.72018 -0.854972 0.51399 -0.0695472 11 6 2
3.53302 -5.82332 6.7065 -0.879501 0.475806 0.00929138 12 7 3
3.73856 -5.75594 6.75954 -0.872906 0.482477 0.072463 7 7 2
4.30659 -5.51979 6.84038 0.22828 0.973493 -0.0141269 29 17 9
4.31756 -5.51538 6.83048 0.553316 0.807969 -0.202554 34 20 12
4.33026 -5.52305 6.8521 0.544212 0.826077 -0.146389 32 19 10
4.42624 -5.53926 6.88808 0.493789 0.865856 0.0804086 42 26 17
4.44614 -5.5353 6.89849 0.567902 0.488029 -0.662809 40 23 13
4.59989 -5.531 6.93807 0.44496 0.391269 -0.805555 3 2 0
4.59322 -5.53019 6.94289 0.39803 0.340207 -0.851958 2 2 0
3.48622 -5.86367 6.72912 -0.47484 0.755295 -0.451727 13 6 1
3.50108 -5.85532 6.73155 -0.69856 0.715033 -0.0272253 18 13 6
3.51196 -5.84044 6.73502 -0.837133 0.536034 0.108977 11 8 2
3.54285 -5.81085 6.72283 -0.886002 0.463545 -0.0112758 12 9 5
3.55332 -5.78367 6.71938 -0.892081 0.450683 -0.0328159 5 4 0
3.71918 -5.76382 6.76757 -0.622393 0.682616 0.382966 4 5 1
3.7277 -5.75634 6.757 -0.725794 0.621045 0.295848 5 6 1
3.7356 -5.75904 6.76178 -0.811988 0.552373 0.188572 6 7 2
3.74812 -5.72251 6.75381 -0.892821 0.242615 -0.379485 17 17 10
3.75101 -5.73776 6.76099 -0.751347 0.650501 -0.111025 16 16 9
3.76071 -5.74337 6.7768 -0.386312 0.852568 -0.351982 26 23 15
4.25958 -5.59677 6.86697 0.505934 0.861744 0.0377936 38 32 23
4.31289 -5.51322 6.8537 -0.258851 0.849664 0.459421 25 15 5
4.34469 -5.52611 6.86035 0.491251 0.870389 -0.0330956 38 24 14
4.35984 -5.52836 6.86717 0.407207 0.909295 0.0858213 41 26 15
4.37564 -5.53224 6.87487 0.315178 0.910834 0.26654 39 22 12
4.48986 -5.53577 6.91918 0.335038 0.917029 0.216352 38 22 13
4.48144 -5.50292 6.91032 0.459347 0.886685 0.0528317 32 19 10
4.50868 -5.54353 6.92926 0.330407 0.932022 0.148885 35 21 12
4.5228 -5.54122 6.93487 0.468428 0.88299 -0.0300616 30 19 10
4.53879 -5.54234 6.94564 0.326403 0.916565 0.231017 15 9 4
4.55644 -5.53523 6.95246 0.474368 0.416144 -0.775757 2 3 1
4.56669 -5.54442 6.94573 0.478909 0.426631 -0.767224 4 3 1
4.5839 -5.53765 6.9547 0.479947 0.428918 -0.765297 2 2 1
3.49483 -5.86452 6.74938 -0.833239 0.539073 -0.122936 12 8 2
3.54835 -5.79362 6.73932 -0.848854 0.520561 0.091996 6 5 1
3.73778 -5.79548 6.79515 -0.880674 0.471639 0.0443838 6 6 2
3.74291 -5.75502 6.7858 -0.919301 0.312244 -0.239562 14 13 7
3.74601 -5.75007 6.78017 -0.811325 0.584594 -0.00149155 15 14 8
4.29401 -5.66804 6.93427 0.330893 0.908514 0.25517 39 33 26
4.31238 -5.52324 6.86944 0.323549 0.928772 0.180826 20 13 3
4.33124 -5.53177 6.87954 0.322418 0.929384 0.1797 23 14 5
4.34455 -5.52789 6.88278 0.358887 0.922662 0.141046 30 20 10
4.3568 -5.52318 6.88571 0.462398 0.882801 0.0827722 33 19 10
4.35638 -5.52065 6.88414 0.417107 0.895364 0.156031 33 20 11
4.3724 -5.52715 6.89066 0.480754 0.874577 0.0631682 36 21 11
4.50909 -5.54411 6.95296 0.427271 0.903933 0.0185972 15 9 4
4.52406 -5.54588 6.95476 0.531367 0.833796 -0.149781 12 8 3
4.55117 -5.53941 6.96681 0.503593 0.45061 -0.737119 2 3 1
4.57309 -5.52715 6.96075 0.475762 0.420075 -0.772779 2 2 1
4.57034 -5.52154 6.95736 0.476428 0.420699 -0.772029 2 2 1
3.48692 -5.87083 6.76673 -0.882988 0.364704 -0.295506 10 6 1
3.50627 -5.86312 6.76221 -0.900522 0.423389 -0.0990083 15 12 6
3.5454 -5.81293 6.76162 -0.556549 0.828281 -0.0648396 9 8 4
3.55021 -5.77619 6.74551 -0.814012 0.509903 -0.278177 5 5 1
3.55021 -5.77619 6.74551 -0.814012 0.509903 -0.278177 5 5 1
3.54527 -5.76272 6.73515 -0.806039 0.505417 -0.307984 5 5 1
3.72232 -5.7794 6.8078 -0.771742 0.63494 0.0355752 6 6 1
3.74019 -5.88872 6.85851 -0.918452 0.364963 -0.152475 5 6 1
3.73582 -5.77585 6.81174 -0.918026 0.310226 -0.246959 13 12 6
3.74971 -5.75064 6.79475 -0.886032 0.462281 0.0352639 24 22 14
4.28196 -5.53022 6.88505 0.619434 0.716099 -0.321721 36 30 22
4.29816 -5.52865 6.88839 0.489747 0.871563 -0.0229334 30 25 15
4.2995 -5.52001 6.88904 0.44132 0.889838 0.115868 27 21 11
4.3124 -5.52765 6.89204 0.322316 0.929256 0.180544 20 14 5
4.32877 -5.5292 6.89884 0.336446 0.927194 0.164669 18 10 2
4.3632 -5.54186 6.91619 0.420572 0.896941 0.136442 20 11 4
4.47521 -5.53385 6.94205 0.0203236 0.978598 0.204776 21 13 6
4.49289 -5.53572 6.9517 0.00227761 0.969983 0.243161 12 7 3
4.51005 -5.55225 6.96557 0.598372 0.801171 -0.00877045 8 5 2
4.55705 -5.50587 6.96047 0.47186 0.412309 -0.779326 2 2 1
3.50632 -5.84552 6.77775 -0.878034 0.441894 -0.183808 12 9 3
3.73111 -5.85476 6.85626 -0.909784 0.409946 -0.0650916 5 6 1
3.73633 -5.74126 6.81152 -0.906355 0.268604 -0.326146 23 22 14
3.74164 -5.73921 6.80425 -0.913275 0.286308 -0.289754 26 24 15
4.29143 -5.55319 6.91799 -0.0224274 0.915074 0.402661 37 33 24
4.29622 -5.5697 6.92612 -0.262955 0.816409 0.514131 40 33 24
4.30066 -5.50989 6.88543 0.394219 0.888159 0.236148 28 22 13
4.4986 -5.53407 6.9811 0.532928 0.843451 -0.0676597 3 3 1
4.52303 -5.56179 6.98868 0.704809 0.65123 -0.281327 4 4 0
3.46143 -5.88878 6.79563 -0.422656 0.771678 0.475263 12 7 3
3.49819 -5.85292 6.7971 -0.90257 0.409446 -0.133119 11 7 2
3.49819 -5.85292 6.7971 -0.90257 0.409446 -0.133119 11 7 2
3.51801 -5.80486 6.78022 -0.76733 0.232017 -0.597807 24 21 12
3.53123 -5.79667 6.78266 -0.690499 0.556279 -0.462347 12 11 4
3.54675 -5.75864 6.75927 -0.804878 0.549256 -0.224699 4 5 1
3.54675 -5.75864 6.75927 -0.804878 0.549256 -0.224699 5 5 1
3.74286 -5.71756 6.81109 -0.906549 0.420236 -0.0396337 32 29 20
4.295 -5.54874 6.91993 0.193459 0.915052 0.353911 39 33 25
4.29639 -5.54715 6.92241 0.376297 0.90526 0.197242 38 33 23
4.29638 -5.55627 6.93757 0.134615 0.912887 0.385378 43 36 26
4.30062 -5.5383 6.91464 0.269493 0.935792 0.227302 35 31 21
4.30183 -5.53942 6.92341 0.493986 0.868452 0.0420558 37 31 21
4.30847 -5.54444 6.92396 0.324695 0.913813 0.243967 34 29 19
4.32224 -5.5148 6.9135 0.0957159 0.901262 0.422569 19 12 4
4.3243 -5.52232 6.91535 0.129912 0.911257 0.390812 18 11 4
4.32 -5.5289 6.92031 0.353205 0.935398 -0.0166601 24 17 8
4.3284 -5.51563 6.91967 -0.321502 0.821087 0.471648 17 11 2
3.45534 -5.87946 6.8052 -0.771472 0.601903 0.206261 13 9 3
3.47049 -5.86081 6.80555 -0.752753 0.615916 0.2324 13 10 3
3.52034 -5.79864 6.79562 -0.681409 0.639398 -0.356163 19 15 7
3.54227 -5.78401 6.78313 -0.745533 0.596291 -0.297689 6 6 2
3.54495 -5.73629 6.76732 -0.662025 0.62454 -0.414334 5 5 1
3.54379 -5.74108 6.76473 -0.716854 0.634476 -0.289068 5 5 1
4.29436 -5.5653 6.94459 0.196662 0.938765 0.28292 42 37 28
4.29796 -5.56279 6.94377 0.234321 0.918439 0.318692 43 39 26
4.30133 -5.53563 6.93673 0.517258 0.853042 -0.0690201 42 35 26
4.30259 -5.5482 6.93986 0.565058 0.819343 -0.0968832 43 36 27
4.30133 -5.53563 6.93673 0.517258 0.853042 -0.0690201 42 35 26
4.30133 -5.53563 6.93673 0.517258 0.853042 -0.0690201 42 35 26
3.44318 -5.88994 6.82001 -0.793599 0.583913 0.171016 11 7 3
3.45668 -5.88236 6.82348 -0.184883 0.663651 -0.724835 11 7 1
3.46852 -5.85717 6.81774 -0.811632 0.205545 -0.546813 14 10 2
3.4869 -5.81971 6.80711 -0.185724 0.827078 0.530517 9 5 1
3.49923 -5.81886 6.79914 -0.644349 0.749649 0.151131 12 7 1
3.53489 -5.79692 6.803 -0.649439 0.683801 -0.332633 15 13 6
3.53904 -5.77734 6.80112 -0.638533 0.670545 -0.377684 11 10 4
3.538 -5.7734 6.79405 -0.725347 0.591483 -0.352163 11 9 4
3.54133 -5.73659 6.77922 -0.691801 0.661993 -0.288403 6 6 2
4.30271 -5.55927 6.97164 -0.107069 0.868188 0.484546 44 36 29
4.30642 -5.57851 6.96898 -0.408521 0.781679 0.471262 45 41 26
4.30642 -5.57851 6.96898 -0.408521 0.781679 0.471262 45 41 26
4.30642 -5.57851 6.96898 -0.408521 0.781679 0.471262 45 41 26
4.30642 -5.57851 6.96898 -0.408521 0.781679 0.471262 45 41 26
4.30642 -5.57851 6.96898 -0.408521 0.781679 0.471262 45 41 26
3.47691 -5.85956 6.8313 -0.446315 0.186192 -0.875292 13 9 1
3.48705 -5.82494 6.82127 -0.839953 0.226028 -0.493347 10 6 0
3.49911 -5.81342 6.8125 -0.212528 0.936044 -0.280453 15 10 3
3.48744 -5.82108 6.82406 -0.825745 0.211102 -0.523049 10 6 1
3.51396 -5.80826 6.8156 -0.61255 0.790059 0.0242574 24 19 10
3.52922 -5.81018 6.82342 -0.494244 0.655675 -0.5708 21 17 9
3.54615 -5.79431 6.82953 -0.356198 0.920951 -0.158025 9 8 2
3.54827 -5.79132 6.82692 -0.576024 0.754233 -0.315164 8 7 2
3.5527 -5.76183 6.8197 0.356894 0.210603 -0.910095 5 4 1
4.2988 -5.54295 6.96476 -0.0479095 0.883692 0.46561 45 38 29
3.45156 -5.87616 6.84614 -0.852202 0.247843 -0.460788 16 12 6
3.5061 -5.80454 6.82617 -0.716655 0.493095 -0.493217 21 17 8
3.49955 -5.81362 6.82883 -0.787127 0.294911 -0.541718 16 12 4
3.5482 -5.7986 6.84827 -0.161325 0.950976 0.263855 11 8 3
3.55365 -5.77244 6.82751 0.368841 0.217126 -0.903777 6 4 1
3.6808 -5.73301 6.85425 -0.452501 0.762417 0.462562 6 7 2
3.69192 -5.74788 6.86668 -0.896855 0.257971 -0.359308 7 8 3
3.69884 -5.76691 6.88917 -0.786497 0.617591 0.00202999 9 10 3
3.4254 -5.87606 6.84916 0.635604 0.771633 0.0242877 8 6 2
3.45116 -5.86039 6.86087 -0.833675 0.477215 -0.277942 11 9 5
3.48348 -5.81936 6.84868 -0.819746 0.510556 -0.259517 8 6 1
3.49398 -5.80975 6.85256 -0.418017 0.729353 -0.541577 16 13 8
3.508 -5.80253 6.85505 -0.210463 0.512106 -0.832738 20 16 8
3.55103 -5.81331 6.87228 0.069808 0.874678 0.479651 12 9 4
3.69254 -5.75028 6.88417 -0.870374 0.472832 -0.137402 9 9 3
3.7082 -5.77137 6.90761 -0.919006 0.343552 -0.193393 15 15 8
3.70363 -5.78155 6.91606 -0.913739 0.303262 -0.270396 11 12 5
3.70833 -5.77108 6.89867 -0.878775 0.448194 -0.163943 14 14 7
3.71379 -5.76516 6.903 -0.869546 0.483535 -0.100414 19 19 11
3.42513 -5.8747 6.86462 0.599286 0.795895 0.0860698 6 4 1
3.44303 -5.87138 6.8803 -0.874331 0.28509 -0.392772 5 5 1
3.4747 -5.8278 6.86972 -0.215373 0.0265675 -0.976171 6 5 1
3.48555 -5.81083 6.86637 -0.634393 0.736142 -0.235883 9 7 3
3.56429 -5.76751 6.8591 0.0467626 0.0694449 -0.996489 4 5 1
3.68898 -5.7971 6.92608 -0.835603 0.535177 -0.123905 6 6 1
3.70237 -5.78629 6.93094 -0.909208 0.408671 -0.0795607 12 12 6
3.71704 -5.7553 6.91271 -0.831952 0.523584 -0.183616 27 25 18
3.47831 -5.81814 6.88282 -0.0368891 0.892647 0.449245 6 5 1
3.51265 -5.79449 6.86975 -0.118872 0.890617 -0.438944 14 10 4
3.68055 -5.801 6.94258 -0.803181 0.543685 -0.243528 5 7 2
3.69041 -5.87635 6.98157 -0.803475 0.553245 -0.219884 4 5 1
3.69015 -5.7784 6.94102 -0.87893 0.468338 -0.0902276 11 12 6
3.70866 -5.75879 6.92806 -0.87571 0.477074 -0.0743705 20 20 12
3.71456 -5.72503 6.91998 -0.86428 0.49762 -0.0734433 33 30 22
3.71697 -5.75318 6.93299 -0.759253 0.568292 -0.317142 29 27 19
3.67229 -5.80816 6.95711 -0.881771 0.471303 0.0188042 5 5 1
3.68188 -5.7828 6.95775 -0.863737 0.483358 -0.142562 8 9 3
3.69434 -5.76713 6.95993 -0.872884 0.484591 -0.0569683 15 15 8
3.70281 -5.74855 6.94828 -0.851691 0.514997 -0.0969568 23 22 14
3.66777 -5.8387 7.00361 -0.896771 0.440938 -0.0370699 4 5 1
3.66693 -5.82594 6.99463 -0.906721 0.289552 -0.306622 4 5 1
3.69376 -5.78091 6.98107 -0.892811 0.432742 -0.124992 17 16 9
3.68522 -5.76726 6.97507 -0.89326 0.44918 -0.0180096 16 14 8
3.70023 -5.73467 6.96669 -0.853398 0.489437 -0.179342 31 29 20
4.35263 -5.47416 7.07987 -0.184551 0.883722 0.430089 18 11 6
3.6822 -5.77401 6.99252 -0.909582 0.403114 -0.100796 18 16 9
3.69165 -5.73736 6.9817 -0.900594 0.432521 -0.0430773 28 26 17
4.34664 -5.51676 7.11019 -0.0781864 0.913589 0.399051 37 30 23
4.35327 -5.51118 7.10914 0.0748767 0.916696 0.392507 28 20 13
4.35316 -5.47555 7.08095 -0.19881 0.879053 0.433291 18 11 6
4.35414 -5.46102 7.08811 -0.234928 0.867451 0.438563 12 8 3
4.35446 -5.46166 7.08858 -0.236313 0.866953 0.438804 12 8 3
4.35446 -5.46166 7.08858 -0.236313 0.866953 0.438804 12 8 3
3.67165 -5.77195 7.00653 -0.907004 0.412144 -0.0864889 18 17 9
4.34505 -5.48615 7.10223 -0.198035 0.88032 0.431066 26 18 12
4.34957 -5.52515 7.12795 0.349024 0.916966 0.193277 42 34 26
4.35687 -5.49774 7.11014 -0.0275937 0.925307 0.378213 22 15 9
4.40272 -5.61161 7.20043 0.616472 0.677312 -0.401511 23 16 7
3.65803 -5.813 7.03114 -0.824658 0.563391 -0.0503055 7 7 2
3.66632 -5.78971 7.03067 -0.885665 0.418548 -0.201035 17 17 10
4.32278 -5.50521 7.12504 0.0373092 0.903428 0.427113 51 42 37
4.33582 -5.4992 7.12687 0.341705 0.930192 0.134087 50 42 35
4.36164 -5.51172 7.14038 0.296437 0.939045 0.174124 23 17 9
4.35766 -5.51727 7.14356 0.431303 0.901603 0.0330166 32 24 17
4.36479 -5.51705 7.14249 0.176936 0.947359 0.266843 22 16 9
4.41233 -5.61742 7.22141 0.598146 0.767736 -0.229787 20 14 7
4.41545 -5.61899 7.22272 0.527094 0.841523 -0.118366 18 12 6
4.42164 -5.61995 7.22386 0.581275 0.776491 -0.243271 12 8 4
4.43929 -5.66779 7.25157 0.616586 0.718572 -0.321677 12 9 4
4.42795 -5.6269 7.22977 0.613779 0.685776 -0.391135 8 6 2
3.66576 -5.78018 7.04133 -0.910608 0.379209 -0.164296 20 19 12
3.6953 -5.70303 7.0062 -0.894221 0.446864 -0.0261074 51 45 37
4.32896 -5.50555 7.13885 0.239355 0.922105 0.304026 53 43 39
4.34068 -5.51181 7.15716 0.0631503 0.941079 0.332239 53 45 38
4.34947 -5.51404 7.14993 0.237288 0.945337 0.223677 44 37 29
4.36321 -5.52191 7.17227 0.570515 0.79387 -0.210435 32 27 20
4.36875 -5.5294 7.17618 0.589165 0.763182 -0.265401 29 23 17
4.4099 -5.60703 7.22488 0.605312 0.752984 -0.258093 17 12 7
3.65581 -5.86257 7.09273 0.543669 0.484932 -0.685029 5 5 1
3.65636 -5.81426 7.07409 0.570315 0.661205 -0.48739 9 10 5
3.67306 -5.75763 7.04001 -0.905325 0.278881 -0.320331 25 23 15
3.66842 -5.76271 7.04397 -0.908661 0.290462 -0.299944 23 22 14
3.67671 -5.72235 7.01906 -0.803302 0.573127 -0.161959 34 31 23
3.67915 -5.72634 7.03539 -0.903067 0.269282 -0.334601 39 35 26
3.68927 -5.71081 7.02143 -0.810103 0.576709 -0.105549 50 44 35
3.68736 -5.71091 7.02375 -0.887608 0.44164 -0.130794 49 43 34
3.69903 -5.68809 7.02464 -0.862068 0.497088 -0.098706 57 50 42
4.35149 -5.52231 7.18147 0.580218 0.750514 -0.316349 51 44 37
4.36475 -5.52702 7.18529 0.606073 0.723273 -0.330986 36 30 23
4.39454 -5.56911 7.21785 0.515289 0.851416 -0.0978135 19 15 8
4.40978 -5.59107 7.24075 0.593584 0.495997 -0.633755 14 11 4
3.64706 -5.80443 7.07199 0.688364 0.604975 -0.4002 7 7 3
3.66149 -5.78659 7.07214 -0.913609 0.32667 -0.242085 18 18 11
3.68246 -5.71915 7.03925 -0.760652 0.61382 -0.211267 45 40 30
3.67566 -5.70525 7.03356 -0.689399 0.724375 -0.00299646 43 38 29
3.69039 -5.68381 7.02651 -0.685679 0.68923 -0.234105 56 48 40
4.34649 -5.51025 7.18595 0.459473 0.879951 -0.120712 56 49 40
4.35198 -5.50285 7.18465 0.54855 0.820732 -0.159661 49 43 35
4.35823 -5.50975 7.19138 0.600639 0.735601 -0.313247 44 37 30
4.35557 -5.49905 7.18563 0.486448 0.872293 -0.0497432 41 35 27
4.36751 -5.50936 7.20231 0.338361 0.809507 -0.479803 31 26 19
4.36898 -5.51286 7.20447 0.603064 0.729953 -0.321686 31 26 19
4.40983 -5.57462 7.23891 0.610671 0.686231 -0.395182 8 6 3
4.40983 -5.57462 7.23891 0.610671 0.686231 -0.395182 8 6 3
3.66852 -5.75113 7.06341 -0.879692 0.226013 -0.418403 29 27 18
4.33442 -5.49735 7.19088 -0.0674949 0.891938 0.447092 57 51 43
4.34976 -5.49691 7.20155 0.595138 0.751908 -0.283627 60 53 45
4.37074 -5.51251 7.21073 0.589564 0.760927 -0.270932 31 25 20
3.66149 -5.77544 7.09128 -0.881618 0.391428 -0.263694 22 22 15
3.67044 -5.75857 7.09472 -0.91412 0.327889 -0.23848 30 28 20
3.66933 -5.74249 7.08523 -0.914624 0.328457 -0.23575 32 30 22
3.6813 -5.70456 7.06422 -0.846347 0.450749 -0.283765 53 47 38
3.68694 -5.6729 7.05636 -0.749806 0.525663 -0.401832 54 47 40
4.3473 -5.49019 7.21365 0.243892 0.789048 -0.563843 66 58 50
4.36624 -5.49895 7.22921 0.607891 0.71102 -0.353439 43 37 29
