ply
format ascii 1.0
element vertex 129
property float x
property float y
property float z
property uchar diffuse_red
property uchar diffuse_green
property uchar diffuse_blue
end_header
0.194268 -0.255169 0.292168 0 255 0
0.330981 -0.166109 1.47484 0 255 0
-0.0159663 -0.210364 0.99069 0 255 0
-0.189883 -0.152607 0.72314 0 255 0
0.636071 0.124968 1.90782 0 255 0
-0.650909 -0.204728 -0.204899 0 255 0
-0.492193 -0.308787 -0.989786 0 255 0
-0.850762 0.00347842 -0.469319 0 255 0
-0.662895 -0.235172 -1.11298 0 255 0
-0.277101 -0.367712 -0.919664 0 255 0
-0.816983 -0.200478 -1.22577 0 255 0
-0.966619 -0.104572 -1.37187 0 255 0
0.00737452 -0.284532 -1.03494 0 255 0
-0.109623 -0.338063 -0.952566 0 255 0
-0.0432569 -0.260712 0.156066 0 255 0
0.314327 -0.236079 0.300931 0 255 0
0.0768057 -0.215018 -1.10967 0 255 0
-0.992662 0.107265 -0.630298 0 255 0
0.69389 0.0728865 2.15816 0 255 0
0.639649 0.0508307 2.33026 0 255 0
0.461045 -0.0116893 2.44607 255 0 255
0.8175 0.0122339 0.0739538 0 255 0
0.117076 -0.0942736 -1.23791 0 255 0
0.840646 -4.73348e-008 -0.0536244 0 255 0
0.858776 0.0404516 -0.216349 0 255 0
0.75115 0.362795 -0.672045 0 255 0
1.03356 0.119156 -0.16581 0 255 0
1.1588 -0.0792317 0.122308 0 255 0
1.02623 -0.0146785 -0.0537906 255 0 255
1.17069 -0.0142018 0.0374265 0 255 0
0.876908 0.270224 -0.419459 0 255 0
0.791513 0.316834 -0.535874 255 0 255
0.687018 0.470271 -0.813092 0 255 0
0.604667 0.587914 -0.973035 255 0 255
0.623314 0.618679 -1.08302 255 0 255
0.145948 0.0395964 -1.30545 0 255 0
0.200715 0.105194 -1.35614 0 255 0
0.54192 0.626483 -1.22973 0 255 0
0.0955402 -0.126357 -1.18572 0 255 0
0.597703 -0.054099 0.20531 255 0 255
0.218474 0.267582 -1.43097 0 255 0
0.343967 0.435972 -1.48064 255 0 255
0.483239 0.586941 -1.36952 255 0 255
-1.12617 0.0348934 -1.54212 0 255 0
0.517062 -0.0608371 1.66353 255 0 255
-0.120914 -0.207133 2.60619 255 0 255
0.11047 -0.140573 1.21596 255 0 255
-0.332736 -0.0745692 0.362233 0 255 0
-1.27359 0.206048 -1.71832 0 255 0
-1.47545 1.77441e-008 0.196422 0 255 0
-1.42284 0.0617351 0.0484398 0 255 0
-1.33856 0.0239038 -0.0483723 0 255 0
-1.53566 -0.062907 0.311159 0 255 0
-2.17125 0.0200875 -0.0794342 0 255 0
-2.23045 -0.0461914 0.0811691 0 255 0
-2.27193 -0.133192 0.269027 0 255 0
-2.33718 -0.249928 0.480208 0 255 0
-2.4256 -0.263543 0.602583 255 0 255
-2.15572 0.067991 0.257312 0 255 0
-2.64514 -0.264461 0.671093 255 0 255
-2.82652 -0.198917 0.577352 255 0 255
-2.89543 -0.0866197 0.429522 0 255 0
-1.32205 -0.407795 2.62524 255 0 255
-1.08936 -0.411145 2.63525 255 0 255
-1.84396 -0.295659 2.57803 255 0 255
-2.08007 -0.234604 2.49656 255 0 255
-2.21514 -0.0800096 2.32628 0 255 0
-2.30351 0.014142 2.18739 255 0 255
-2.33973 0.0580782 2.01972 0 255 0
-2.31612 0.126444 1.85136 0 255 0
-1.56663 -0.33449 2.5801 255 0 255
-2.30901 0.211478 1.73978 0 255 0
-2.37163 0.287071 1.68929 255 0 255
-0.783505 -0.372552 2.64528 0 255 0
-0.435554 -0.324838 2.65092 255 0 255
0.1974 -0.0780955 2.54079 255 0 255
-1.9502 0.0552696 0.32389 255 0 255
-2.15546 0.0379454 -0.233304 0 255 0
-2.93739 0.067416 0.255341 255 0 255
-2.07754 0.121518 -0.412139 0 255 0
-0.469445 0.0538288 0.0655565 0 255 0
-1.68866 -0.00970564 0.348484 0 255 0
-1.15622 0.257469 -0.791011 0 255 0
-1.44726 0.38871 -1.90195 0 255 0
-2.96813 0.156263 0.143145 0 255 0
-2.644 -0.68294 -1.51574 255 0 255
-2.9404 -0.433906 -1.47929 0 255 0
-2.66616 -0.639863 -1.44954 255 0 255
-2.7876 -0.509806 -1.46479 0 255 0
-2.61683 -0.663115 -1.57739 255 0 255
-3.35799 -0.142093 -1.74568 255 0 255
-3.45387 -0.0649867 -1.82809 0 255 0
-3.18432 -0.300759 -1.57873 0 255 0
-3.54101 -0.049567 -1.86913 0 255 0
-2.5983 -0.585809 -1.67298 0 255 0
-3.64767 1.29688e-008 -1.92593 255 0 255
-2.58832 -0.479739 -1.74091 255 0 255
-3.7639 -0.0054215 -1.97178 255 0 255
-3.30633 -0.215018 -1.68706 255 0 255
-1.21875 0.00854868 -0.140148 255 0 255
-2.56142 -0.336947 -1.81988 0 255 0
-3.99066 -0.0188419 -2.02918 0 255 0
-3.86879 -0.0104213 -2.01421 255 0 255
-2.3151 0.122478 0.139132 0 255 0
-3.10307 -0.312043 -1.55396 255 0 255
-2.48932 0.14026 0.0736295 0 255 0
-4.1388 -0.0040412 -2.04519 255 0 255
-4.2189 0.0540284 -2.08549 255 0 255
-2.05549 0.295882 -0.656899 0 255 0
-2.54203 -0.0941972 -1.90497 255 0 255
-0.748811 0.0755465 -0.179953 0 255 0
-2.95563 0.260849 0.0513365 0 255 0
-1.57592 0.513295 -2.04463 0 255 0
-2.76847 0.268205 0.0073535 0 255 0
-2.87847 0.245218 0.0339373 0 255 0
-1.06236 0.116694 -0.248097 0 255 0
-1.3457 0.315848 -0.855868 0 255 0
-2.63071 0.155072 0.0543224 0 255 0
-2.48173 0.00572019 -1.9972 255 0 255
-1.69739 0.628866 -2.13917 255 0 255
-2.37233 0.0926149 -2.05591 255 0 255
-1.90943 0.428758 -0.826544 0 255 0
-1.63053 0.448705 -0.936789 0 255 0
-2.36635 0.243856 -2.11301 0 255 0
-1.90219 0.914709 -2.2164 255 0 255
-2.30352 0.423946 -2.16194 0 255 0
-2.06471 0.556416 -2.16395 0 255 0
-1.97439 0.733435 -2.23866 0 255 0
-0.374737 -0.227987 -0.0188236 0 255 0
