ply
format ascii 1.0
element vertex 1154
property float x
property float y
property float z
property uchar red
property uchar green
property uchar blue
end_header
2.914089 5.608247 -14.075602 202 200 195 
2.989619 5.647059 -14.173011 200 200 197 
3.076923 5.706294 -14.321678 199 201 196 
3.154930 5.746479 -14.422535 199 202 195 
3.234043 5.787234 -14.524822 201 202 194 
3.302491 5.807829 -14.576512 201 202 193 
3.383512 5.849463 -14.681004 202 202 194 
3.453237 5.870503 -14.733813 201 202 192 
3.523466 5.891697 -14.787004 201 200 190 
3.568345 5.870503 -14.733813 201 200 191 
3.587189 5.807829 -14.576512 202 202 190 
3.631206 5.787234 -14.524822 202 202 193 
3.687943 5.787234 -14.524822 205 205 199 
3.798561 5.870503 -14.733813 206 205 196 
3.884058 5.913043 -14.840580 204 205 188 
3.970803 5.956204 -14.948905 204 204 185 
4.029197 5.956204 -14.948905 204 204 189 
4.087591 5.956204 -14.948905 202 202 193 
4.145986 5.956204 -14.948905 201 202 192 
4.219780 5.978022 -15.003663 200 202 192 
4.294117 6.000000 -15.058824 199 202 191 
4.352941 6.000000 -15.058824 199 203 191 
4.411765 6.000000 -15.058824 198 202 190 
4.454213 5.978022 -15.003663 199 202 192 
4.496350 5.956204 -14.948905 200 202 195 
4.571429 5.978022 -15.003663 201 203 194 
4.681481 6.044445 -15.170370 203 205 195 
4.758364 6.066915 -15.226766 203 205 194 
4.835821 6.089552 -15.283582 202 202 187 
4.895523 6.089552 -15.283582 201 200 185 
4.955224 6.089552 -15.283582 201 201 187 
5.033708 6.112360 -15.340824 202 203 189 
5.093633 6.112360 -15.340824 204 204 188 
5.153558 6.112360 -15.340824 204 205 187 
5.174721 6.066915 -15.226766 204 204 187 
5.214815 6.044445 -15.170370 203 203 189 
5.254612 6.022140 -15.114391 201 201 191 
5.353160 6.066915 -15.226766 200 200 190 
5.453184 6.112360 -15.340824 200 199 184 
5.596958 6.205323 -15.574144 199 200 178 
5.701149 6.252873 -15.693486 199 200 176 
5.784616 6.276923 -15.753846 201 198 180 
5.823755 6.252873 -15.693486 203 197 186 
5.862596 6.229008 -15.633588 203 196 188 
5.923664 6.229008 -15.633588 201 196 187 
6.007663 6.252873 -15.693486 199 199 183 
6.115830 6.301158 -15.814672 198 200 183 
6.201550 6.325582 -15.875969 199 201 188 
6.263566 6.325582 -15.875969 196 198 188 
6.301158 6.301158 -15.814672 194 197 187 
6.362935 6.301158 -15.814672 195 196 187 
6.375479 6.252873 -15.693486 194 194 183 
6.486486 6.301158 -15.814672 193 194 181 
6.599222 6.350194 -15.937743 195 196 186 
6.661479 6.350194 -15.937743 197 198 188 
6.750000 6.375000 -16.000000 197 196 181 
6.812500 6.375000 -16.000000 196 193 173 
6.875000 6.375000 -16.000000 194 191 175 
7.019763 6.450593 -16.189724 189 188 177 
7.139442 6.501992 -16.318726 183 182 171 
7.232000 6.528000 -16.384001 172 172 160 
7.325301 6.554217 -16.449799 161 164 155 
7.389558 6.554217 -16.449799 150 158 154 
7.453815 6.554217 -16.449799 139 150 152 
7.312500 6.375000 -16.000000 127 141 142 
7.375000 6.375000 -16.000000 118 136 135 
7.351351 6.301158 -15.814672 110 132 131 
7.356322 6.252873 -15.693486 123 151 151 
7.417624 6.252873 -15.693486 195 228 228 
7.478927 6.252873 -15.693486 214 249 251 
7.657588 6.350194 -15.937743 205 242 247 
7.780392 6.400000 -16.062746 172 212 220 
7.843137 6.400000 -16.062746 111 155 168 
7.905882 6.400000 -16.062746 60 103 119 
7.968627 6.400000 -16.062746 56 97 113 
8.031373 6.400000 -16.062746 58 100 115 
8.094118 6.400000 -16.062746 58 101 117 
8.125000 6.375000 -16.000000 58 101 116 
8.187500 6.375000 -16.000000 60 99 113 
8.250000 6.375000 -16.000000 59 97 107 
8.312500 6.375000 -16.000000 58 96 106 
8.375000 6.375000 -16.000000 56 93 106 
8.437500 6.375000 -16.000000 53 85 99 
8.533334 6.400000 -16.062746 30 51 58 
8.596079 6.400000 -16.062746 7 16 14 
8.658824 6.400000 -16.062746 6 9 2 
8.721569 6.400000 -16.062746 9 9 3 
8.750000 6.375000 -16.000000 9 11 4 
8.812500 6.375000 -16.000000 12 17 10 
8.875000 6.375000 -16.000000 11 22 14 
8.937500 6.375000 -16.000000 9 22 16 
8.964980 6.350194 -15.937743 8 21 16 
9.062500 6.375000 -16.000000 7 21 17 
9.125000 6.375000 -16.000000 6 23 17 
9.187500 6.375000 -16.000000 8 24 16 
-4.800000 5.572414 -14.124138 30 51 55 
-4.696246 5.515358 -13.979522 33 55 62 
-4.610169 5.477966 -13.884746 34 55 63 
-4.510067 5.422819 -13.744967 48 71 78 
-4.456376 5.422819 -13.744967 77 105 114 
-4.462585 5.496599 -13.931973 85 116 128 
-4.453608 5.553265 -14.075602 86 116 128 
-4.429066 5.591695 -14.173011 87 118 130 
-4.373703 5.591695 -14.173011 78 111 122 
-4.333333 5.611111 -14.222222 50 81 91 
-4.277778 5.611111 -14.222222 41 66 74 
-4.222222 5.611111 -14.222222 51 72 79 
-3.880399 5.368771 -13.607973 54 81 80 
-3.801980 5.333333 -13.518152 54 81 83 
-3.736842 5.315790 -13.473684 57 83 89 
-3.684211 5.315790 -13.473684 54 77 87 
-3.619672 5.298361 -13.429508 54 77 87 
-4.125000 6.312500 -16.000000 23 46 52 
-4.062500 6.312500 -16.000000 16 39 50 
-3.908397 6.167939 -15.633588 20 43 54 
-3.847328 6.167939 -15.633588 24 47 53 
-3.687732 6.007435 -15.226766 27 46 48 
-3.549091 5.876364 -14.894546 33 52 49 
-3.453237 5.812950 -14.733813 57 74 74 
-3.300699 5.650350 -14.321678 94 108 109 
-3.156463 5.496599 -13.931973 129 137 136 
-3.040000 5.386667 -13.653334 151 155 150 
-2.947368 5.315790 -13.473684 167 169 160 
-2.857143 5.246753 -13.298701 180 178 165 
-2.778135 5.196141 -13.170418 187 182 168 
-2.726688 5.196141 -13.170418 193 187 173 
-2.683871 5.212903 -13.212903 196 189 179 
-2.632258 5.212903 -13.212903 198 193 185 
-2.572347 5.196141 -13.170418 199 197 187 
-2.512820 5.179487 -13.128205 201 200 185 
-2.477419 5.212903 -13.212903 203 200 183 
-2.457516 5.281046 -13.385621 207 202 186 
-2.421053 5.315790 -13.473684 207 202 187 
-2.376238 5.333333 -13.518152 206 201 187 
-2.300654 5.281046 -13.385621 205 202 187 
-2.248366 5.281046 -13.385621 206 204 193 
-2.167742 5.212903 -13.212903 206 205 195 
-2.122977 5.229774 -13.255664 206 206 196 
-2.071198 5.229774 -13.255664 205 206 197 
-2.019418 5.229774 -13.255664 208 206 196 
-1.967638 5.229774 -13.255664 209 205 189 
-1.915858 5.229774 -13.255664 210 205 186 
-1.864078 5.229774 -13.255664 210 206 188 
-1.812298 5.229774 -13.255664 209 206 189 
-1.754839 5.212903 -13.212903 210 206 190 
-1.697749 5.196141 -13.170418 210 206 190 
-1.646302 5.196141 -13.170418 207 204 188 
-1.610390 5.246753 -13.298701 204 203 191 
-1.558442 5.246753 -13.298701 204 202 190 
-1.506493 5.246753 -13.298701 206 203 189 
-0.157895 5.315790 -13.473684 205 205 200 
-0.104918 5.298361 -13.429508 203 206 196 
-0.052288 5.281046 -13.385621 203 205 193 
0.421053 3.037594 -7.699248 195 194 188 
0.459605 2.901257 -7.353681 177 181 176 
0.467354 2.776632 -7.037801 169 173 171 
0.494845 2.776632 -7.037801 160 169 167 
1.728223 5.630662 -14.271777 153 175 182 
1.771626 5.591695 -14.173011 114 134 146 
1.820690 5.572414 -14.124138 117 136 146 
1.869416 5.553265 -14.075602 120 139 145 
1.879195 5.422819 -13.744967 124 144 148 
1.926421 5.404682 -13.698997 131 149 151 
1.966777 5.368771 -13.607973 142 157 158 
2.019933 5.368771 -13.607973 157 167 166 
2.066225 5.350993 -13.562914 169 174 171 
2.119205 5.350993 -13.562914 177 180 175 
2.186667 5.386667 -13.653334 182 185 180 
2.293515 5.515358 -13.979522 187 188 182 
2.364261 5.553265 -14.075602 195 192 181 
2.419244 5.553265 -14.075602 200 198 183 
2.482759 5.572414 -14.124138 202 202 189 
2.537931 5.572414 -14.124138 202 203 193 
2.593103 5.572414 -14.124138 201 202 192 
2.639175 5.553265 -14.075602 200 201 191 
2.694158 5.553265 -14.075602 199 200 190 
2.739726 5.534246 -14.027397 200 201 190 
2.794521 5.534246 -14.027397 204 202 192 
2.849315 5.534246 -14.027397 205 202 194 
2.894198 5.515358 -13.979522 204 202 196 
2.948806 5.515358 -13.979522 202 201 195 
3.044983 5.591695 -14.173011 202 202 190 
3.154930 5.690141 -14.422535 203 203 190 
3.222615 5.710248 -14.473498 204 203 189 
3.290780 5.730496 -14.524822 204 203 192 
3.383512 5.792115 -14.681004 204 204 197 
3.465704 5.833935 -14.787004 203 204 196 
3.536232 5.855072 -14.840580 202 203 193 
3.594203 5.855072 -14.840580 203 202 192 
3.612903 5.792115 -14.681004 204 204 193 
3.644128 5.750890 -14.576512 205 205 196 
3.727599 5.792115 -14.681004 207 207 200 
3.798561 5.812950 -14.733813 207 208 199 
3.898182 5.876364 -14.894546 207 208 196 
3.970803 5.897810 -14.948905 206 206 195 
4.029197 5.897810 -14.948905 206 205 198 
4.072727 5.876364 -14.894546 204 204 196 
4.130909 5.876364 -14.894546 204 204 194 
4.204380 5.897810 -14.948905 203 204 198 
4.278389 5.919414 -15.003663 202 203 197 
4.336997 5.919414 -15.003663 201 203 193 
4.395605 5.919414 -15.003663 201 204 190 
4.454213 5.919414 -15.003663 203 203 189 
4.512821 5.919414 -15.003663 205 203 193 
4.588235 5.941176 -15.058824 204 203 195 
4.681481 5.985185 -15.170370 206 206 197 
4.740741 5.985185 -15.170370 206 207 195 
4.817844 6.007435 -15.226766 205 204 188 
4.895523 6.029851 -15.283582 204 201 185 
4.973783 6.052434 -15.340824 204 202 188 
5.110266 6.144487 -15.574144 207 205 194 
5.171103 6.144487 -15.574144 208 205 194 
5.172932 6.075188 -15.398497 208 205 193 
5.194030 6.029851 -15.283582 208 204 192 
5.234201 6.007435 -15.226766 205 204 192 
5.293680 6.007435 -15.226766 203 203 193 
5.373134 6.029851 -15.283582 203 202 193 
5.515152 6.121212 -15.515152 203 200 188 
5.618320 6.167939 -15.633588 204 200 185 
5.745174 6.239382 -15.814672 205 202 186 
5.806950 6.239382 -15.814672 205 201 185 
5.846154 6.215384 -15.753846 206 201 185 
5.885057 6.191571 -15.693486 205 200 186 
5.946360 6.191571 -15.693486 205 200 188 
6.007663 6.191571 -15.693486 204 201 187 
6.115830 6.239382 -15.814672 201 202 188 
6.225681 6.287938 -15.937743 201 203 191 
6.287938 6.287938 -15.937743 198 200 188 
6.350194 6.287938 -15.937743 196 198 184 
6.387597 6.263566 -15.875969 197 198 187 
6.449613 6.263566 -15.875969 197 197 183 
6.536965 6.287938 -15.937743 197 197 180 
6.625000 6.312500 -16.000000 199 198 186 
6.687500 6.312500 -16.000000 201 199 190 
6.750000 6.312500 -16.000000 200 197 185 
6.812500 6.312500 -16.000000 198 195 182 
6.901961 6.337255 -16.062746 196 194 184 
7.019763 6.387352 -16.189724 191 191 184 
7.139442 6.438247 -16.318726 186 184 176 
7.232000 6.464000 -16.384001 175 175 165 
7.325301 6.489960 -16.449799 164 166 160 
7.419355 6.516129 -16.516129 153 157 158 
7.453815 6.489960 -16.449799 142 149 152 
7.341177 6.337255 -16.062746 131 141 140 
7.375000 6.312500 -16.000000 122 137 134 
7.379845 6.263566 -15.875969 112 134 132 
7.384615 6.215384 -15.753846 131 161 162 
7.446154 6.215384 -15.753846 205 237 238 
7.507692 6.215384 -15.753846 216 250 253 
7.657588 6.287938 -15.937743 207 243 248 
7.780392 6.337255 -16.062746 173 214 221 
7.874016 6.362205 -16.125984 110 155 166 
7.905882 6.337255 -16.062746 59 103 117 
7.968627 6.337255 -16.062746 57 96 109 
8.031373 6.337255 -16.062746 62 98 113 
8.094118 6.337255 -16.062746 62 98 117 
8.156863 6.337255 -16.062746 62 98 118 
8.187500 6.312500 -16.000000 62 97 117 
8.250000 6.312500 -16.000000 62 96 114 
8.312500 6.312500 -16.000000 60 96 113 
8.375000 6.312500 -16.000000 57 95 112 
8.470589 6.337255 -16.062746 53 86 101 
8.533334 6.337255 -16.062746 31 53 58 
8.629921 6.362205 -16.125984 5 18 13 
8.692913 6.362205 -16.125984 3 11 1 
8.755905 6.362205 -16.125984 7 13 4 
8.784314 6.337255 -16.062746 8 13 5 
8.812500 6.312500 -16.000000 13 19 10 
8.875000 6.312500 -16.000000 16 22 12 
8.937500 6.312500 -16.000000 16 21 13 
9.000000 6.312500 -16.000000 15 20 14 
9.062500 6.312500 -16.000000 12 21 17 
9.125000 6.312500 -16.000000 11 22 18 
9.187500 6.312500 -16.000000 11 23 18 
9.286275 6.337255 -16.062746 11 22 14 
-4.992908 5.673759 -14.524822 28 52 54 
-4.800000 5.517241 -14.124138 27 53 57 
-4.712329 5.479452 -14.027397 33 56 63 
-4.625850 5.442177 -13.931973 33 55 58 
-4.510067 5.369128 -13.744967 45 70 71 
-4.456376 5.369128 -13.744967 74 104 110 
-4.447458 5.423729 -13.884746 85 117 126 
-4.438356 5.479452 -14.027397 88 119 130 
-4.398625 5.498282 -14.075602 90 120 134 
-4.373703 5.536332 -14.173011 84 116 133 
-4.318339 5.536332 -14.173011 61 92 108 
-4.262976 5.536332 -14.173011 46 72 85 
-4.178694 5.498282 -14.075602 52 75 86 
-4.040404 5.387206 -13.791245 55 82 92 
-3.946667 5.333333 -13.653334 54 84 92 
-3.842105 5.263158 -13.473684 50 80 84 
-3.789474 5.263158 -13.473684 50 80 84 
-3.736842 5.263158 -13.473684 54 83 90 
-3.684211 5.263158 -13.473684 52 80 92 
-3.631579 5.263158 -13.473684 56 84 96 
-3.663300 5.387206 -13.791245 67 94 103 
-4.138996 6.177606 -15.814672 63 91 97 
-4.077220 6.177606 -15.814672 42 68 77 
-3.954373 6.083650 -15.574144 21 45 58 
-3.806691 5.947956 -15.226766 18 42 54 
-3.665455 5.818182 -14.894546 21 45 52 
-3.568345 5.755396 -14.733813 25 45 47 
-3.510791 5.755396 -14.733813 26 45 44 
-3.356643 5.594406 -14.321678 37 55 54 
-3.232877 5.479452 -14.027397 69 84 84 
-3.156463 5.442177 -13.931973 119 125 125 
-3.040000 5.333333 -13.653334 154 152 149 
-2.957096 5.280528 -13.518152 170 168 162 
-2.875817 5.228758 -13.385621 181 178 169 
-2.805195 5.194805 -13.298701 189 185 172 
-2.744337 5.177993 -13.255664 193 191 177 
-2.692557 5.177993 -13.255664 195 194 179 
-2.640777 5.177993 -13.255664 198 196 185 
-2.580645 5.161290 -13.212903 202 198 189 
-2.529032 5.161290 -13.212903 203 200 186 
-2.501629 5.211726 -13.342019 205 202 186 
-2.473684 5.263158 -13.473684 209 207 190 
-2.429043 5.280528 -13.518152 208 205 188 
-2.392027 5.315615 -13.607973 208 204 189 
-2.331126 5.298013 -13.562914 208 205 192 
-2.270627 5.280528 -13.518152 209 206 193 
-2.167742 5.161290 -13.212903 209 207 195 
-2.109325 5.144694 -13.170418 208 208 195 
-2.031746 5.079365 -13.003175 209 209 197 
-1.974684 5.063291 -12.962026 211 210 197 
-1.924051 5.063291 -12.962026 212 209 194 
-1.879365 5.079365 -13.003175 213 208 194 
-1.834395 5.095541 -13.044586 213 207 196 
-1.806452 5.161290 -13.212903 211 207 193 
-1.754839 5.161290 -13.212903 212 208 192 
-1.703226 5.161290 -13.212903 211 208 194 
-1.662338 5.194805 -13.298701 208 206 195 
0.453097 2.831858 -7.249557 180 182 174 
0.457143 2.689076 -6.884034 171 175 170 
0.472131 2.622951 -6.714754 164 172 169 
0.488746 2.572347 -6.585209 154 169 164 
0.514469 2.572347 -6.585209 146 163 157 
1.728223 5.574913 -14.271777 159 180 186 
1.777778 5.555555 -14.222222 117 135 144 
1.826990 5.536332 -14.173011 117 136 142 
1.869416 5.498282 -14.075602 120 139 142 
1.891892 5.405406 -13.837838 124 143 149 
1.926421 5.351171 -13.698997 129 148 154 
1.966777 5.315615 -13.607973 141 156 161 
2.019933 5.315615 -13.607973 159 167 169 
2.073090 5.315615 -13.607973 170 177 174 
2.133333 5.333333 -13.653334 176 183 178 
2.238908 5.460751 -13.979522 182 187 183 
2.309278 5.498282 -14.075602 188 191 186 
2.372414 5.517241 -14.124138 195 195 187 
2.435986 5.536332 -14.173011 200 201 189 
2.491349 5.536332 -14.173011 203 204 192 
2.537931 5.517241 -14.124138 204 204 195 
2.593103 5.517241 -14.124138 203 203 195 
2.639175 5.498282 -14.075602 202 204 194 
2.694158 5.498282 -14.075602 200 203 193 
2.749141 5.498282 -14.075602 201 204 191 
2.804124 5.498282 -14.075602 204 205 190 
2.849315 5.479452 -14.027397 205 205 192 
2.894198 5.460751 -13.979522 204 205 196 
2.948806 5.460751 -13.979522 204 204 195 
3.098592 5.633803 -14.422535 203 203 191 
3.154930 5.633803 -14.422535 205 205 188 
3.222615 5.653710 -14.473498 206 205 191 
3.326165 5.734767 -14.681004 206 206 195 
3.395684 5.755396 -14.733813 205 206 198 
3.478261 5.797101 -14.840580 205 206 198 
3.549091 5.818182 -14.894546 205 204 193 
3.607273 5.818182 -14.894546 205 204 191 
3.652174 5.797101 -14.840580 205 206 195 
3.683453 5.755396 -14.733813 207 207 199 
3.741007 5.755396 -14.733813 208 208 200 
3.840000 5.818182 -14.894546 208 209 201 
3.926740 5.860806 -15.003663 208 209 200 
3.985348 5.860806 -15.003663 207 208 198 
4.029197 5.839416 -14.948905 209 207 199 
4.072727 5.818182 -14.894546 209 205 198 
4.130909 5.818182 -14.894546 208 205 195 
4.189091 5.818182 -14.894546 207 204 197 
4.262774 5.839416 -14.948905 206 203 195 
4.336997 5.860806 -15.003663 204 205 191 
4.395605 5.860806 -15.003663 203 206 189 
4.454213 5.860806 -15.003663 204 205 190 
4.529412 5.882353 -15.058824 206 205 193 
4.605166 5.904059 -15.114391 208 205 194 
4.681481 5.925926 -15.170370 209 207 194 
4.740741 5.925926 -15.170370 209 209 194 
4.800000 5.925926 -15.170370 209 208 195 
4.895523 5.970149 -15.283582 208 205 193 
4.973783 5.992509 -15.340824 207 205 190 
5.110266 6.083650 -15.574144 209 208 193 
5.171103 6.083650 -15.574144 211 208 194 
5.172932 6.015038 -15.398497 211 207 193 
5.213483 5.992509 -15.340824 211 207 192 
5.253731 5.970149 -15.283582 209 206 191 
5.313433 5.970149 -15.283582 206 205 192 
5.393259 5.992509 -15.340824 205 203 195 
5.536122 6.083650 -15.574144 205 201 194 
5.683398 6.177606 -15.814672 206 201 192 
5.789883 6.225681 -15.937743 208 204 194 
5.829457 6.201550 -15.875969 209 205 193 
5.891473 6.201550 -15.875969 208 204 190 
5.907692 6.153846 -15.753846 205 204 187 
5.946360 6.130268 -15.693486 203 204 187 
6.007663 6.130268 -15.693486 204 204 187 
6.092308 6.153846 -15.753846 205 205 189 
6.225681 6.225681 -15.937743 206 205 191 
6.287938 6.225681 -15.937743 204 202 189 
6.350194 6.225681 -15.937743 201 200 186 
6.412451 6.225681 -15.937743 201 199 189 
6.474708 6.225681 -15.937743 200 198 188 
6.614173 6.299212 -16.125984 201 198 185 
6.677166 6.299212 -16.125984 202 199 186 
6.713726 6.274510 -16.062746 204 199 189 
6.776471 6.274510 -16.062746 201 197 187 
6.839216 6.274510 -16.062746 200 196 183 
6.901961 6.274510 -16.062746 199 196 181 
7.019763 6.324111 -16.189724 195 194 181 
7.139442 6.374502 -16.318726 187 187 175 
7.232000 6.400000 -16.384001 176 179 168 
7.325301 6.425703 -16.449799 165 169 164 
7.389558 6.425703 -16.449799 156 159 158 
7.424000 6.400000 -16.384001 144 151 149 
7.341177 6.274510 -16.062746 132 144 144 
7.375000 6.250000 -16.000000 123 140 142 
7.379845 6.201550 -15.875969 112 135 138 
7.413127 6.177606 -15.814672 136 164 166 
7.474904 6.177606 -15.814672 211 242 242 
7.536680 6.177606 -15.814672 218 250 253 
7.687500 6.250000 -16.000000 208 244 249 
7.811024 6.299212 -16.125984 175 214 223 
7.874016 6.299212 -16.125984 113 153 168 
7.937008 6.299212 -16.125984 65 102 120 
7.968627 6.274510 -16.062746 61 94 113 
8.031373 6.274510 -16.062746 63 96 118 
8.094118 6.274510 -16.062746 61 97 119 
8.156863 6.274510 -16.062746 60 97 118 
8.219608 6.274510 -16.062746 61 98 119 
8.314960 6.299212 -16.125984 60 97 117 
8.377953 6.299212 -16.125984 59 96 115 
8.440945 6.299212 -16.125984 56 94 112 
8.503937 6.299212 -16.125984 50 86 98 
8.600791 6.324111 -16.189724 28 53 57 
8.664032 6.324111 -16.189724 4 17 12 
8.727273 6.324111 -16.189724 2 10 2 
8.755905 6.299212 -16.125984 4 12 5 
8.784314 6.274510 -16.062746 5 14 8 
8.812500 6.250000 -16.000000 9 18 10 
8.875000 6.250000 -16.000000 14 22 14 
8.937500 6.250000 -16.000000 16 24 18 
9.000000 6.250000 -16.000000 15 22 18 
9.133859 6.299212 -16.125984 14 19 17 
9.196851 6.299212 -16.125984 13 19 17 
9.259843 6.299212 -16.125984 12 21 19 
-4.992908 5.617021 -14.524822 27 50 51 
-4.816609 5.480969 -14.173011 26 51 52 
-4.696246 5.406143 -13.979522 33 56 62 
-4.610169 5.369492 -13.884746 31 52 55 
-4.494983 5.297659 -13.698997 41 62 63 
-4.441472 5.297659 -13.698997 74 99 104 
-4.447458 5.369492 -13.884746 90 116 127 
-4.423208 5.406143 -13.979522 92 119 131 
-4.383562 5.424657 -14.027397 91 122 134 
-4.328767 5.424657 -14.027397 87 119 133 
-4.259386 5.406143 -13.979522 71 103 116 
-4.204778 5.406143 -13.979522 51 80 91 
-4.094276 5.333333 -13.791245 50 77 87 
-3.960396 5.227723 -13.518152 53 82 90 
-3.894737 5.210526 -13.473684 53 84 92 
-3.804560 5.159609 -13.342019 49 79 85 
-3.752443 5.159609 -13.342019 49 80 85 
-3.724590 5.193443 -13.429508 53 85 91 
-3.684211 5.210526 -13.473684 51 83 90 
-3.631579 5.210526 -13.473684 56 85 94 
-3.651007 5.315436 -13.744967 72 100 107 
-3.722222 5.500000 -14.222222 81 108 111 
-3.840000 5.760000 -14.894546 66 92 94 
-3.781818 5.760000 -14.894546 33 59 63 
-3.657143 5.657143 -14.628572 17 46 53 
-3.500000 5.500000 -14.222222 18 47 53 
-3.420690 5.462069 -14.124138 23 47 48 
-3.342466 5.424657 -14.027397 25 47 47 
-3.287671 5.424657 -14.027397 27 49 51 
-3.210884 5.387755 -13.931973 47 65 66 
-3.093333 5.280000 -13.653334 99 108 107 
-3.029900 5.262458 -13.607973 151 150 143 
-2.957096 5.227723 -13.518152 172 169 157 
-2.875817 5.176471 -13.385621 183 179 169 
-2.805195 5.142857 -13.298701 190 186 176 
-2.744337 5.126214 -13.255664 193 193 181 
-2.692557 5.126214 -13.255664 195 197 184 
-2.640777 5.126214 -13.255664 199 198 188 
-2.588997 5.126214 -13.255664 205 201 189 
-2.545455 5.142857 -13.298701 207 202 189 
-2.518033 5.193443 -13.429508 209 204 192 
-2.481848 5.227723 -13.518152 211 208 196 
-2.461539 5.297659 -13.698997 210 207 191 
-2.408027 5.297659 -13.698997 210 206 188 
-2.354515 5.297659 -13.698997 211 207 191 
-2.278146 5.245033 -13.562914 212 209 194 
-2.210526 5.210526 -13.473684 213 210 195 
-2.116129 5.109677 -13.212903 213 210 195 
-2.025316 5.012658 -12.962026 213 211 195 
-1.974684 5.012658 -12.962026 214 211 195 
-1.924051 5.012658 -12.962026 215 211 195 
-1.879365 5.028572 -13.003175 215 210 197 
-1.834395 5.044586 -13.044586 214 209 198 
-1.806452 5.109677 -13.212903 213 209 196 
-1.760518 5.126214 -13.255664 214 210 197 
-1.731148 5.193443 -13.429508 212 208 198 
-1.678689 5.193443 -13.429508 209 206 197 
0.436860 2.703072 -6.989761 185 186 177 
0.445172 2.592471 -6.703764 175 179 174 
0.463023 2.546624 -6.585209 168 175 171 
0.481013 2.506329 -6.481013 161 170 166 
0.499220 2.471139 -6.390016 153 165 160 
0.531646 2.506329 -6.481013 145 159 154 
1.815603 5.617021 -14.524822 118 136 139 
1.839721 5.519164 -14.271777 118 137 138 
1.882353 5.480969 -14.173011 121 139 141 
1.891892 5.351351 -13.837838 125 143 146 
1.932886 5.315436 -13.744967 130 148 151 
1.966777 5.262458 -13.607973 144 156 159 
2.019933 5.262458 -13.607973 162 166 168 
2.080000 5.280000 -13.653334 173 176 172 
2.147651 5.315436 -13.744967 180 182 175 
2.238908 5.406143 -13.979522 184 187 180 
2.317241 5.462069 -14.124138 188 191 185 
2.397213 5.519164 -14.271777 195 195 187 
2.470176 5.557895 -14.371930 198 199 188 
2.526316 5.557895 -14.371930 198 199 188 
2.555556 5.500000 -14.222222 199 199 190 
2.611111 5.500000 -14.222222 200 201 192 
2.666667 5.500000 -14.222222 202 202 192 
2.722222 5.500000 -14.222222 202 201 190 
2.758621 5.462069 -14.124138 202 203 189 
2.813793 5.462069 -14.124138 204 206 189 
2.859107 5.443299 -14.075602 206 207 191 
2.924138 5.462069 -14.124138 206 207 196 
3.053004 5.597173 -14.473498 205 206 196 
3.154122 5.677419 -14.681004 205 205 195 
3.211470 5.677419 -14.681004 205 206 194 
3.280576 5.697842 -14.733813 206 207 198 
3.338130 5.697842 -14.733813 207 207 202 
3.420290 5.739130 -14.840580 208 209 202 
3.490909 5.760000 -14.894546 211 209 200 
3.562044 5.781022 -14.948905 210 207 194 
3.620438 5.781022 -14.948905 208 205 191 
3.678832 5.781022 -14.948905 207 206 196 
3.737226 5.781022 -14.948905 209 209 201 
3.795620 5.781022 -14.948905 210 210 202 
3.882353 5.823529 -15.058824 210 210 201 
3.926740 5.802198 -15.003663 210 211 199 
3.985348 5.802198 -15.003663 211 211 199 
4.029197 5.781022 -14.948905 213 210 199 
4.072727 5.760000 -14.894546 213 209 198 
4.130909 5.760000 -14.894546 212 208 198 
4.189091 5.760000 -14.894546 211 208 200 
4.247272 5.760000 -14.894546 209 208 198 
4.321168 5.781022 -14.948905 208 209 196 
4.395605 5.802198 -15.003663 206 208 193 
4.454213 5.802198 -15.003663 206 206 194 
4.529412 5.823529 -15.058824 208 206 196 
4.605166 5.845018 -15.114391 209 208 198 
4.664207 5.845018 -15.114391 210 210 198 
4.740741 5.866667 -15.170370 211 212 198 
4.800000 5.866667 -15.170370 211 211 200 
4.859259 5.866667 -15.170370 211 210 200 
4.955224 5.910448 -15.283582 209 209 197 
5.052631 5.954887 -15.398497 211 210 196 
5.132075 5.977358 -15.456604 213 210 193 
5.172932 5.954887 -15.398497 213 209 191 
5.213483 5.932584 -15.340824 214 210 192 
5.253731 5.910448 -15.283582 213 209 193 
5.313433 5.910448 -15.283582 208 207 195 
5.413534 5.954887 -15.398497 206 206 196 
5.536122 6.022814 -15.574144 206 205 195 
5.727626 6.163424 -15.937743 208 205 195 
5.812500 6.187500 -16.000000 210 206 195 
5.852140 6.163424 -15.937743 210 206 195 
5.891473 6.139535 -15.875969 212 207 194 
5.907692 6.092308 -15.753846 210 207 192 
5.946360 6.068965 -15.693486 207 206 189 
5.984733 6.045802 -15.633588 206 206 188 
6.068965 6.068965 -15.693486 208 207 190 
6.177606 6.115830 -15.814672 210 207 191 
6.287938 6.163424 -15.937743 208 204 189 
6.350194 6.163424 -15.937743 205 202 188 
6.437500 6.187500 -16.000000 203 201 191 
6.525490 6.211765 -16.062746 201 201 191 
6.614173 6.236220 -16.125984 202 201 190 
6.703557 6.260870 -16.189724 205 201 191 
6.740158 6.236220 -16.125984 207 202 195 
6.776471 6.211765 -16.062746 205 201 193 
6.839216 6.211765 -16.062746 202 201 188 
6.901961 6.211765 -16.062746 200 201 183 
6.992126 6.236220 -16.125984 197 196 179 
7.083004 6.260870 -16.189724 189 189 175 
7.203187 6.310757 -16.318726 178 180 169 
7.266932 6.310757 -16.318726 167 171 160 
7.330678 6.310757 -16.318726 159 162 151 
7.365079 6.285714 -16.253969 147 154 148 
7.312500 6.187500 -16.000000 134 146 147 
7.375000 6.187500 -16.000000 123 141 145 
7.351351 6.115830 -15.814672 113 137 142 
7.413127 6.115830 -15.814672 139 168 172 
7.474904 6.115830 -15.814672 215 244 244 
7.536680 6.115830 -15.814672 221 251 252 
7.687500 6.187500 -16.000000 211 245 249 
7.811024 6.236220 -16.125984 178 215 224 
7.874016 6.236220 -16.125984 116 156 171 
7.937008 6.236220 -16.125984 65 102 121 
7.968627 6.211765 -16.062746 60 95 115 
8.031373 6.211765 -16.062746 61 97 121 
8.094118 6.211765 -16.062746 58 98 121 
8.156863 6.211765 -16.062746 56 98 118 
8.251968 6.236220 -16.125984 56 98 116 
8.314960 6.236220 -16.125984 56 97 115 
8.377953 6.236220 -16.125984 56 94 111 
8.440945 6.236220 -16.125984 53 91 105 
8.537549 6.260870 -16.189724 48 84 94 
8.600791 6.260870 -16.189724 28 52 57 
8.664032 6.260870 -16.189724 6 15 15 
8.727273 6.260870 -16.189724 5 8 2 
8.755905 6.236220 -16.125984 7 11 3 
8.784314 6.211765 -16.062746 8 13 4 
8.812500 6.187500 -16.000000 11 16 7 
8.875000 6.187500 -16.000000 16 21 13 
8.937500 6.187500 -16.000000 16 25 19 
9.000000 6.187500 -16.000000 14 24 19 
9.133859 6.236220 -16.125984 15 21 17 
-4.918728 5.540636 -14.473498 28 49 46 
-4.696246 5.351536 -13.979522 34 56 58 
-4.594594 5.297297 -13.837838 31 53 58 
-4.494983 5.244147 -13.698997 38 58 63 
-4.441472 5.244147 -13.698997 69 89 93 
-4.462585 5.333333 -13.931973 91 113 119 
-4.423208 5.351536 -13.979522 94 120 130 
-4.368601 5.351536 -13.979522 91 123 131 
-4.284746 5.315254 -13.884746 89 122 128 
-4.187920 5.261745 -13.744967 79 111 118 
-4.134228 5.261745 -13.744967 58 86 93 
-4.026490 5.192053 -13.562914 51 76 80 
-3.947368 5.157895 -13.473684 54 81 86 
-3.869281 5.124183 -13.385621 53 83 89 
-3.779935 5.074434 -13.255664 49 79 87 
-3.728155 5.074434 -13.255664 48 79 86 
-3.700326 5.107492 -13.342019 52 82 88 
-3.672131 5.140984 -13.429508 51 81 87 
-3.643564 5.174918 -13.518152 56 84 93 
-3.638796 5.244147 -13.698997 72 101 111 
-3.609428 5.279461 -13.791245 89 119 127 
-3.666667 5.444445 -14.222222 84 114 121 
-3.611111 5.444445 -14.222222 48 78 85 
-3.543253 5.425606 -14.173011 23 53 60 
-3.416949 5.315254 -13.884746 18 48 54 
-3.328859 5.261745 -13.744967 23 48 53 
-3.253333 5.226666 -13.653334 24 47 50 
-3.200000 5.226666 -13.653334 24 48 50 
-3.136213 5.209302 -13.607973 35 58 57 
-3.083056 5.209302 -13.607973 76 94 90 
-3.009901 5.174918 -13.518152 137 145 137 
-2.947368 5.157895 -13.473684 171 170 157 
-2.875817 5.124183 -13.385621 186 181 168 
-2.805195 5.090909 -13.298701 193 189 177 
-2.735484 5.058064 -13.212903 195 194 180 
-2.692557 5.074434 -13.255664 197 198 183 
-2.640777 5.074434 -13.255664 201 200 189 
-2.605863 5.107492 -13.342019 206 202 191 
-2.570492 5.140984 -13.429508 210 203 190 
-2.526316 5.157895 -13.473684 213 205 193 
-2.481848 5.174918 -13.518152 215 207 197 
-2.486486 5.297297 -13.837838 213 207 193 
-2.432432 5.297297 -13.837838 212 208 190 
-2.378378 5.297297 -13.837838 214 210 193 
-2.285714 5.209302 -13.607973 215 211 196 
-2.217822 5.174918 -13.518152 215 211 198 
-2.157895 5.157895 -13.473684 215 212 195 
-2.057878 5.041800 -13.170418 215 211 193 
-1.987261 4.993630 -13.044586 215 212 192 
-1.936306 4.993630 -13.044586 214 212 193 
-1.885350 4.993630 -13.044586 213 211 195 
-1.852090 5.041800 -13.170418 214 210 195 
-1.812298 5.074434 -13.255664 215 211 196 
-1.783607 5.140984 -13.429508 214 211 198 
-1.731148 5.140984 -13.429508 213 209 200 
-1.684211 5.157895 -13.473684 209 207 196 
0.374582 2.622074 -6.849498 202 201 193 
0.400000 2.613333 -6.826667 198 196 188 
0.417618 2.557912 -6.681892 192 188 183 
0.435897 2.512820 -6.564103 182 181 179 
0.454259 2.473186 -6.460568 173 175 174 
0.474259 2.446178 -6.390016 167 169 168 
0.491551 2.408602 -6.291859 160 164 161 
0.524181 2.446178 -6.390016 149 158 154 
0.464017 1.684211 -4.399570 211 240 243 
1.872340 5.560284 -14.524822 113 139 141 
1.888889 5.444445 -14.222222 116 141 145 
1.891892 5.297297 -13.837838 121 145 146 
1.932886 5.261745 -13.744967 129 149 150 
1.953795 5.174918 -13.518152 142 157 159 
2.019933 5.209302 -13.607973 161 167 167 
2.101010 5.279461 -13.791245 173 174 170 
2.184300 5.351536 -13.979522 177 178 174 
2.269896 5.425606 -14.173011 175 180 175 
2.341463 5.463415 -14.271777 169 175 168 
2.414035 5.501754 -14.371930 162 166 154 
2.470176 5.501754 -14.371930 149 153 137 
2.526316 5.501754 -14.371930 134 137 122 
2.582456 5.501754 -14.371930 125 126 112 
2.620209 5.463415 -14.271777 134 135 120 
2.666667 5.444445 -14.222222 150 152 137 
2.722222 5.444445 -14.222222 154 155 142 
2.758621 5.406897 -14.124138 169 171 157 
2.813793 5.406897 -14.124138 191 194 177 
2.868966 5.406897 -14.124138 204 206 188 
3.140741 5.807407 -15.170370 207 208 192 
3.176471 5.764706 -15.058824 206 207 193 
3.235294 5.764706 -15.058824 207 207 195 
3.270073 5.722628 -14.948905 206 207 198 
3.316364 5.701818 -14.894546 206 206 200 
3.362319 5.681159 -14.840580 207 208 204 
3.420290 5.681159 -14.840580 209 210 203 
3.503650 5.722628 -14.948905 211 211 200 
3.562044 5.722628 -14.948905 211 208 197 
3.620438 5.722628 -14.948905 210 206 198 
3.692308 5.743590 -15.003663 209 208 202 
3.764706 5.764706 -15.058824 209 210 203 
3.823529 5.764706 -15.058824 211 211 202 
3.882353 5.764706 -15.058824 212 212 198 
3.941176 5.764706 -15.058824 212 213 197 
3.985348 5.743590 -15.003663 214 215 199 
4.029197 5.722628 -14.948905 213 214 198 
4.072727 5.701818 -14.894546 212 211 195 
4.130909 5.701818 -14.894546 212 211 197 
4.173913 5.681159 -14.840580 211 211 200 
4.247272 5.701818 -14.894546 210 211 201 
4.321168 5.722628 -14.948905 209 211 200 
4.395605 5.743590 -15.003663 207 209 198 
4.454213 5.743590 -15.003663 207 206 197 
4.512821 5.743590 -15.003663 209 207 200 
4.605166 5.785978 -15.114391 211 210 202 
4.664207 5.785978 -15.114391 212 212 201 
4.740741 5.807407 -15.170370 212 213 200 
4.800000 5.807407 -15.170370 213 212 202 
4.859259 5.807407 -15.170370 214 212 201 
4.918519 5.807407 -15.170370 212 211 201 
5.014925 5.850746 -15.283582 213 212 200 
5.112782 5.894737 -15.398497 214 213 196 
5.153558 5.872659 -15.340824 216 212 192 
5.213483 5.872659 -15.340824 217 212 193 
5.273408 5.872659 -15.340824 215 211 195 
5.353384 5.894737 -15.398497 210 209 197 
5.413534 5.894737 -15.398497 209 209 197 
5.515152 5.939394 -15.515152 210 208 195 
5.705426 6.077519 -15.875969 211 207 194 
5.812500 6.125000 -16.000000 212 208 194 
5.852140 6.101167 -15.937743 212 208 191 
5.891473 6.077519 -15.875969 213 209 193 
5.885057 6.007663 -15.693486 213 208 192 
5.901141 5.961977 -15.574144 211 208 190 
5.939394 5.939394 -15.515152 211 207 189 
6.022814 5.961977 -15.574144 210 207 189 
6.130268 6.007663 -15.693486 210 207 189 
6.239382 6.054054 -15.814672 209 205 188 
6.350194 6.101167 -15.937743 206 204 188 
6.412451 6.101167 -15.937743 204 204 190 
6.525490 6.149020 -16.062746 202 204 192 
6.614173 6.173228 -16.125984 203 204 192 
6.703557 6.197628 -16.189724 205 203 193 
6.740158 6.173228 -16.125984 208 204 196 
6.776471 6.149020 -16.062746 206 204 195 
6.812500 6.125000 -16.000000 203 204 193 
6.875000 6.125000 -16.000000 202 204 190 
6.964706 6.149020 -16.062746 197 197 182 
7.027451 6.149020 -16.062746 190 190 177 
7.118110 6.173228 -16.125984 180 181 174 
7.209486 6.197628 -16.189724 169 172 165 
7.272727 6.197628 -16.189724 159 163 154 
7.307086 6.173228 -16.125984 146 155 149 
7.312500 6.125000 -16.000000 135 149 145 
7.346303 6.101167 -15.937743 126 143 143 
7.351351 6.054054 -15.814672 114 138 140 
7.413127 6.054054 -15.814672 142 169 170 
7.474904 6.054054 -15.814672 218 245 244 
7.536680 6.054054 -15.814672 222 251 252 
7.687500 6.125000 -16.000000 213 245 249 
7.780392 6.149020 -16.062746 180 217 223 
7.843137 6.149020 -16.062746 116 156 167 
7.905882 6.149020 -16.062746 65 102 115 
7.968627 6.149020 -16.062746 60 95 110 
8.031373 6.149020 -16.062746 61 97 115 
8.094118 6.149020 -16.062746 59 97 117 
8.156863 6.149020 -16.062746 58 97 117 
8.251968 6.173228 -16.125984 58 96 114 
8.314960 6.173228 -16.125984 59 95 110 
8.377953 6.173228 -16.125984 59 94 108 
8.440945 6.173228 -16.125984 53 91 103 
8.503937 6.173228 -16.125984 46 83 94 
8.600791 6.197628 -16.189724 26 52 60 
8.629921 6.173228 -16.125984 5 15 17 
8.692913 6.173228 -16.125984 5 7 4 
8.721569 6.149020 -16.062746 7 9 2 
8.750000 6.125000 -16.000000 9 11 2 
8.812500 6.125000 -16.000000 14 16 6 
8.875000 6.125000 -16.000000 15 21 9 
8.937500 6.125000 -16.000000 13 23 12 
8.964980 6.101167 -15.937743 15 26 13 
9.027237 6.101167 -15.937743 23 33 17 
9.125000 6.125000 -16.000000 25 35 19 
-4.936170 5.503546 -14.524822 29 48 48 
-4.728522 5.333333 -14.075602 35 58 59 
-4.579124 5.225589 -13.791245 33 56 60 
-4.480000 5.173333 -13.653334 37 57 62 
-4.426667 5.173333 -13.653334 61 83 84 
-4.462585 5.278912 -13.931973 85 112 114 
-4.423208 5.296928 -13.979522 91 121 127 
-4.338983 5.261017 -13.884746 94 122 129 
-4.227425 5.190636 -13.698997 94 122 128 
-4.173913 5.190636 -13.698997 86 115 121 
-4.079470 5.139073 -13.562914 62 92 98 
-4.013201 5.122112 -13.518152 49 77 82 
-3.921569 5.071896 -13.385621 53 80 86 
-3.844156 5.038961 -13.298701 54 81 89 
-3.743590 4.974359 -13.128205 53 78 87 
-3.692308 4.974359 -13.128205 50 76 81 
-3.688312 5.038961 -13.298701 52 78 78 
-3.660131 5.071896 -13.385621 52 78 78 
-3.643564 5.122112 -13.518152 55 82 87 
-3.626667 5.173333 -13.653334 70 98 105 
-3.573333 5.173333 -13.653334 90 120 129 
-3.543624 5.208054 -13.744967 92 122 135 
-3.489933 5.208054 -13.744967 64 95 107 
-3.436242 5.208054 -13.744967 32 64 72 
-3.360000 5.173333 -13.653334 21 49 56 
-3.306667 5.173333 -13.653334 23 50 56 
-3.231788 5.139073 -13.562914 23 49 54 
-3.168317 5.122112 -13.518152 23 51 51 
-3.105263 5.105263 -13.473684 27 55 53 
-3.052632 5.105263 -13.473684 56 78 78 
-3.000000 5.105263 -13.473684 122 131 128 
-2.918567 5.055375 -13.342019 170 168 158 
-2.847896 5.022654 -13.255664 188 184 172 
-2.787097 5.006452 -13.212903 194 191 181 
-2.717949 4.974359 -13.128205 198 195 182 
-2.675241 4.990354 -13.170418 202 199 184 
-2.649351 5.038961 -13.298701 203 201 189 
-2.614379 5.071896 -13.385621 208 203 194 
-2.570492 5.088525 -13.429508 211 205 195 
-2.518033 5.088525 -13.429508 214 207 197 
-2.481848 5.122112 -13.518152 216 208 197 
-2.453333 5.173333 -13.653334 215 210 192 
-2.408027 5.190636 -13.698997 216 211 191 
-2.346667 5.173333 -13.653334 216 212 192 
-2.270627 5.122112 -13.518152 216 212 194 
-2.210526 5.105263 -13.473684 218 213 194 
-2.143791 5.071896 -13.385621 219 213 190 
-2.091503 5.071896 -13.385621 218 213 189 
-2.006431 4.990354 -13.170418 216 213 190 
-1.954984 4.990354 -13.170418 214 213 193 
-1.903537 4.990354 -13.170418 213 213 198 
-1.852090 4.990354 -13.170418 214 213 200 
-1.818182 5.038961 -13.298701 216 212 201 
-1.777778 5.071896 -13.385621 214 212 198 
-1.731148 5.088525 -13.429508 214 210 197 
-1.684211 5.105263 -13.473684 212 208 196 
-1.459283 5.055375 -13.342019 214 212 194 
0.347826 2.595318 -6.849498 206 205 196 
0.373333 2.586667 -6.826667 205 203 195 
0.395387 2.556837 -6.747941 204 198 192 
0.417618 2.531811 -6.681892 198 190 189 
0.435897 2.487180 -6.564103 185 183 182 
0.454259 2.447949 -6.460568 175 176 177 
0.474259 2.421217 -6.390016 168 172 171 
0.491551 2.384025 -6.291859 161 166 162 
0.455641 1.699890 -4.486309 233 252 252 
0.464017 1.667025 -4.399570 209 239 242 
0.490690 1.699890 -4.486309 195 231 235 
0.512141 1.713024 -4.520971 204 239 242 
1.852632 5.445614 -14.371930 115 137 140 
1.825503 5.208054 -13.744967 117 139 143 
1.860465 5.156146 -13.607973 120 139 143 
1.894737 5.105263 -13.473684 125 141 144 
1.947368 5.105263 -13.473684 136 149 152 
2.006601 5.122112 -13.518152 149 157 157 
2.255033 5.208054 -13.744967 71 81 74 
2.675958 5.407666 -14.271777 36 39 26 
1.501916 2.973180 -7.846743 38 44 32 
1.574803 3.055118 -8.062992 56 63 52 
1.645161 3.129032 -8.258064 104 111 96 
3.200000 5.748148 -15.170370 201 203 188 
3.235294 5.705883 -15.058824 206 206 195 
3.294118 5.705883 -15.058824 206 207 197 
3.328467 5.664234 -14.948905 206 207 198 
3.374545 5.643636 -14.894546 207 208 199 
3.420290 5.623188 -14.840580 209 209 199 
3.478261 5.623188 -14.840580 210 210 198 
3.562044 5.664234 -14.948905 209 209 199 
3.620438 5.664234 -14.948905 209 207 202 
3.705882 5.705883 -15.058824 207 209 204 
3.764706 5.705883 -15.058824 209 211 202 
3.823529 5.705883 -15.058824 212 213 200 
3.882353 5.705883 -15.058824 213 214 200 
3.941176 5.705883 -15.058824 214 215 201 
3.970803 5.664234 -14.948905 214 215 203 
4.029197 5.664234 -14.948905 213 214 202 
4.072727 5.643636 -14.894546 211 212 201 
4.115942 5.623188 -14.840580 212 211 202 
4.173913 5.623188 -14.840580 211 211 202 
4.231884 5.623188 -14.840580 210 210 201 
4.321168 5.664234 -14.948905 208 209 199 
4.379562 5.664234 -14.948905 207 208 198 
4.437956 5.664234 -14.948905 207 206 200 
4.496350 5.664234 -14.948905 211 207 201 
4.571429 5.684982 -15.003663 214 210 201 
4.664207 5.726937 -15.114391 213 213 202 
4.723247 5.726937 -15.114391 213 213 203 
4.800000 5.748148 -15.170370 213 212 203 
4.859259 5.748148 -15.170370 214 211 202 
4.918519 5.748148 -15.170370 215 210 202 
4.977778 5.748148 -15.170370 214 212 202 
5.074627 5.791045 -15.283582 215 213 200 
5.153558 5.812734 -15.340824 217 213 197 
5.213483 5.812734 -15.340824 217 213 196 
5.273408 5.812734 -15.340824 215 211 198 
5.353384 5.834587 -15.398497 211 210 199 
5.393259 5.812734 -15.340824 210 209 199 
5.453184 5.812734 -15.340824 211 209 199 
5.596958 5.901141 -15.574144 212 209 197 
5.767442 6.015504 -15.875969 212 210 195 
5.829457 6.015504 -15.875969 213 210 193 
5.868726 5.992278 -15.814672 214 210 193 
5.862596 5.923664 -15.633588 213 209 194 
5.878788 5.878788 -15.515152 212 209 193 
5.939394 5.878788 -15.515152 212 210 194 
6.000000 5.878788 -15.515152 211 208 191 
6.130268 5.946360 -15.693486 211 207 190 
6.215384 5.969231 -15.753846 210 206 189 
6.301158 5.992278 -15.814672 207 206 189 
6.412451 6.038910 -15.937743 204 206 188 
6.500000 6.062500 -16.000000 205 204 188 
6.588235 6.086275 -16.062746 205 205 188 
6.677166 6.110236 -16.125984 204 205 191 
6.713726 6.086275 -16.062746 208 206 192 
6.750000 6.062500 -16.000000 208 205 193 
6.812500 6.062500 -16.000000 204 205 193 
6.875000 6.062500 -16.000000 202 203 192 
6.937500 6.062500 -16.000000 197 198 186 
7.000000 6.062500 -16.000000 190 191 181 
7.090196 6.086275 -16.062746 182 181 175 
7.152941 6.086275 -16.062746 172 173 162 
7.215686 6.086275 -16.062746 159 163 149 
7.278431 6.086275 -16.062746 147 156 144 
7.284047 6.038910 -15.937743 136 149 140 
7.317830 6.015504 -15.875969 127 144 138 
7.351351 5.992278 -15.814672 116 137 136 
7.384615 5.969231 -15.753846 147 169 167 
7.446154 5.969231 -15.753846 223 246 243 
7.536680 5.992278 -15.814672 225 251 250 
7.687500 6.062500 -16.000000 213 246 249 
7.780392 6.086275 -16.062746 178 218 224 
7.843137 6.086275 -16.062746 112 156 164 
7.905882 6.086275 -16.062746 62 102 115 
7.968627 6.086275 -16.062746 61 95 112 
8.031373 6.086275 -16.062746 63 96 115 
8.094118 6.086275 -16.062746 61 95 116 
8.156863 6.086275 -16.062746 60 97 116 
8.251968 6.110236 -16.125984 60 96 113 
8.314960 6.110236 -16.125984 59 95 108 
8.377953 6.110236 -16.125984 57 94 107 
8.440945 6.110236 -16.125984 53 91 107 
8.503937 6.110236 -16.125984 48 84 99 
8.566929 6.110236 -16.125984 27 52 62 
8.629921 6.110236 -16.125984 7 17 18 
8.658824 6.086275 -16.062746 5 8 3 
8.687500 6.062500 -16.000000 7 8 2 
8.750000 6.062500 -16.000000 9 11 6 
8.812500 6.062500 -16.000000 13 17 13 
8.875000 6.062500 -16.000000 12 20 14 
8.902723 6.038910 -15.937743 9 23 11 
8.964980 6.038910 -15.937743 16 30 11 
8.992249 6.015504 -15.875969 30 41 20 
9.054263 6.015504 -15.875969 28 39 21 
9.151751 6.038910 -15.937743 22 36 21 
-4.761246 5.314879 -14.173011 32 58 63 
-4.579124 5.171717 -13.791245 33 57 62 
-4.480000 5.120000 -13.653334 34 54 57 
-4.426667 5.120000 -13.653334 52 73 73 
-4.447458 5.206779 -13.884746 79 109 110 
-4.393220 5.206779 -13.884746 88 120 124 
-4.280936 5.137124 -13.698997 93 123 129 
-4.227425 5.137124 -13.698997 94 124 131 
-4.160000 5.120000 -13.653334 87 118 125 
-4.079470 5.086093 -13.562914 63 95 103 
-3.986885 5.036066 -13.429508 47 78 85 
-3.908795 5.003257 -13.342019 52 79 85 
-3.794872 4.923077 -13.128205 56 78 87 
-3.707937 4.876191 -13.003175 55 74 85 
-3.657143 4.876191 -13.003175 53 75 83 
-3.688312 4.987013 -13.298701 54 78 83 
-3.626667 5.120000 -13.653334 68 96 105 
-3.561462 5.102990 -13.607973 88 118 131 
-3.520000 5.120000 -13.653334 95 125 140 
-3.466667 5.120000 -13.653334 81 112 125 
-3.413333 5.120000 -13.653334 45 78 87 
-3.348837 5.102990 -13.607973 23 54 62 
-3.284768 5.086093 -13.562914 22 52 58 
-3.221122 5.069307 -13.518152 23 51 55 
-3.157895 5.052631 -13.473684 24 52 52 
-3.105263 5.052631 -13.473684 25 53 53 
-3.022801 5.003257 -13.342019 42 68 69 
-2.970684 5.003257 -13.342019 107 121 119 
-2.899676 4.970874 -13.255664 168 168 160 
-2.802548 4.891720 -13.044586 190 185 175 
-2.725552 4.845426 -12.921136 197 192 183 
-2.658307 4.815047 -12.840125 201 195 185 
-2.641270 4.876191 -13.003175 204 198 188 
-2.623794 4.938907 -13.170418 204 201 192 
-2.597403 4.987013 -13.298701 209 205 196 
-2.562092 5.019608 -13.385621 214 208 198 
-2.518033 5.036066 -13.429508 216 209 199 
-2.473684 5.052631 -13.473684 218 210 197 
-2.437086 5.086093 -13.562914 217 212 194 
-2.400000 5.120000 -13.653334 217 213 194 
-2.315789 5.052631 -13.473684 218 214 195 
-2.248366 5.019608 -13.385621 219 215 194 
-2.196079 5.019608 -13.385621 222 215 196 
-2.143791 5.019608 -13.385621 222 216 196 
-2.071198 4.970874 -13.255664 221 216 196 
-2.012903 4.954839 -13.212903 220 216 197 
-1.954984 4.938907 -13.170418 218 215 198 
-1.903537 4.938907 -13.170418 217 214 200 
-1.852090 4.938907 -13.170418 217 214 200 
-1.812298 4.970874 -13.255664 218 214 200 
-1.766234 4.987013 -13.298701 218 214 201 
-1.714286 4.987013 -13.298701 218 211 199 
-1.684211 5.052631 -13.473684 215 208 197 
-1.454545 4.987013 -13.298701 215 214 201 
-1.398058 4.970874 -13.255664 215 215 203 
0.351946 2.598985 -6.930626 208 207 195 
0.374582 2.568562 -6.849498 206 206 192 
0.455641 1.682366 -4.486309 235 252 250 
0.472131 1.678689 -4.476503 209 238 241 
0.492308 1.687912 -4.501099 193 230 235 
0.512141 1.695364 -4.520971 203 238 242 
0.536913 1.718121 -4.581656 220 248 250 
0.559819 1.733634 -4.623025 170 195 195 
0.577878 1.733634 -4.623025 113 136 137 
0.591265 1.720045 -4.586786 109 130 130 
0.607143 1.714286 -4.571429 102 121 122 
1.818182 4.987013 -13.298701 86 99 99 
1.870130 4.987013 -13.298701 74 86 85 
1.947368 5.052631 -13.473684 76 88 89 
1.386282 2.772563 -7.393502 7 9 3 
1.400000 2.742857 -7.314286 8 11 4 
1.426025 2.737968 -7.301248 8 15 8 
1.454545 2.737968 -7.301248 18 25 15 
1.631373 3.011765 -8.031373 43 48 36 
3.140741 5.688889 -15.170370 82 86 75 
3.176471 5.647059 -15.058824 137 138 131 
3.235294 5.647059 -15.058824 186 186 180 
3.294118 5.647059 -15.058824 203 203 196 
3.340659 5.626374 -15.003663 206 206 195 
3.362319 5.565217 -14.840580 207 208 193 
3.407942 5.545126 -14.787004 209 210 194 
3.478261 5.565217 -14.840580 209 210 196 
3.549091 5.585454 -14.894546 208 209 199 
3.620438 5.605839 -14.948905 207 209 200 
3.678832 5.605839 -14.948905 206 210 199 
3.750916 5.626374 -15.003663 209 212 200 
3.809524 5.626374 -15.003663 213 215 202 
3.868132 5.626374 -15.003663 214 215 204 
3.926740 5.626374 -15.003663 215 216 206 
3.970803 5.605839 -14.948905 215 216 206 
4.029197 5.605839 -14.948905 213 214 204 
4.057971 5.565217 -14.840580 211 212 202 
4.115942 5.565217 -14.840580 212 212 200 
4.173913 5.565217 -14.840580 212 211 198 
4.247272 5.585454 -14.894546 211 210 200 
4.321168 5.605839 -14.948905 208 208 199 
4.379562 5.605839 -14.948905 207 206 198 
4.421818 5.585454 -14.894546 209 206 199 
4.480000 5.585454 -14.894546 214 207 197 
4.571429 5.626374 -15.003663 215 209 196 
4.664207 5.667897 -15.114391 214 213 201 
4.740741 5.688889 -15.170370 213 213 204 
4.800000 5.688889 -15.170370 213 212 205 
4.859259 5.688889 -15.170370 214 212 205 
4.918519 5.688889 -15.170370 214 211 201 
4.977778 5.688889 -15.170370 215 212 199 
5.037037 5.688889 -15.170370 216 212 201 
5.115242 5.710037 -15.226766 217 213 200 
5.174721 5.710037 -15.226766 216 214 199 
5.253731 5.731343 -15.283582 215 212 197 
5.313433 5.731343 -15.283582 212 211 197 
5.373134 5.731343 -15.283582 210 211 200 
5.453184 5.752809 -15.340824 209 210 200 
5.533834 5.774436 -15.398497 210 210 198 
5.657794 5.840304 -15.574144 210 211 195 
5.784616 5.907692 -15.753846 213 211 194 
5.823755 5.885057 -15.693486 215 211 195 
5.862596 5.862596 -15.633588 213 209 196 
5.834587 5.774436 -15.398497 212 208 194 
5.894737 5.774436 -15.398497 211 209 193 
6.022814 5.840304 -15.574144 211 210 195 
6.106870 5.862596 -15.633588 212 210 195 
6.191571 5.885057 -15.693486 210 208 191 
6.276923 5.907692 -15.753846 206 206 188 
6.362935 5.930502 -15.814672 206 206 186 
6.500000 6.000000 -16.000000 207 205 186 
6.562500 6.000000 -16.000000 206 205 187 
6.650980 6.023530 -16.062746 206 206 190 
6.687500 6.000000 -16.000000 208 206 190 
6.750000 6.000000 -16.000000 209 205 190 
6.812500 6.000000 -16.000000 207 204 189 
6.875000 6.000000 -16.000000 204 203 188 
6.937500 6.000000 -16.000000 199 198 185 
7.000000 6.000000 -16.000000 191 191 182 
7.062500 6.000000 -16.000000 182 183 174 
7.125000 6.000000 -16.000000 172 174 159 
7.187500 6.000000 -16.000000 161 164 147 
7.250000 6.000000 -16.000000 149 156 145 
7.255814 5.953488 -15.875969 139 149 142 
7.289575 5.930502 -15.814672 128 143 140 
7.323077 5.907692 -15.753846 117 135 135 
7.356322 5.885057 -15.693486 151 170 168 
7.446154 5.907692 -15.753846 227 247 243 
7.536680 5.930502 -15.814672 226 251 249 
7.687500 6.000000 -16.000000 214 246 249 
7.780392 6.023530 -16.062746 179 218 226 
7.843137 6.023530 -16.062746 111 157 169 
7.905882 6.023530 -16.062746 58 104 119 
7.937500 6.000000 -16.000000 56 97 115 
8.031373 6.023530 -16.062746 60 97 118 
8.094118 6.023530 -16.062746 60 96 116 
8.156863 6.023530 -16.062746 61 97 113 
8.251968 6.047244 -16.125984 62 96 110 
8.314960 6.047244 -16.125984 59 95 106 
8.377953 6.047244 -16.125984 55 94 104 
8.440945 6.047244 -16.125984 52 91 106 
8.503937 6.047244 -16.125984 48 82 98 
8.566929 6.047244 -16.125984 29 48 58 
8.596079 6.023530 -16.062746 9 14 16 
8.658824 6.023530 -16.062746 5 8 5 
8.687500 6.000000 -16.000000 6 8 5 
8.750000 6.000000 -16.000000 9 10 8 
8.812500 6.000000 -16.000000 13 16 15 
8.875000 6.000000 -16.000000 12 20 17 
8.902723 5.976654 -15.937743 10 22 12 
8.930233 5.953488 -15.875969 17 29 12 
8.992249 5.953488 -15.875969 29 41 23 
9.054263 5.953488 -15.875969 23 39 25 
9.151751 5.976654 -15.937743 17 35 27 
-4.632997 5.117845 -13.791245 30 56 67 
