ply
format ascii 1.0
element vertex 754
property float x
property float y
property float z
property float nx
property float ny
property float nz
property uchar diffuse_red
property uchar diffuse_green
property uchar diffuse_blue
end_header
4.48484 -26.6009 10.6899 0.734431 0.644413 -0.212939 111 76 55
4.47766 -26.5658 10.6353 0.662345 0.744527 -0.0835395 128 90 72
4.47586 -26.5564 10.6614 0.708162 0.633079 -0.3126 120 81 62
2.56903 -13.2092 4.68821 -0.718448 0.642949 0.265422 156 139 120
2.56377 -12.9809 4.6088 -0.929217 0.352953 -0.109454 147 129 109
2.57643 -12.9534 4.602 -0.750332 0.577008 0.32259 158 140 121
2.56851 -12.7748 4.52714 -0.908155 0.417685 0.028171 146 131 116
6.7844 -24.8665 10.6371 0.146052 0.889226 0.433526 16 20 13
4.4017 -26.5447 10.662 0.664332 0.738759 -0.113566 144 106 86
4.37906 -26.4082 10.6333 0.72913 0.66719 -0.152407 123 89 69
4.41607 -26.5641 10.6772 0.751106 0.630188 -0.196729 132 98 74
4.41013 -26.5712 10.706 0.697396 0.577854 -0.423937 128 91 71
4.42259 -26.6005 10.7278 0.71894 0.613353 -0.326993 127 90 67
4.58082 -27.0471 10.9766 0.599989 0.798674 -0.0461852 79 43 25
2.54946 -13.2082 4.71232 -0.927473 0.359509 -0.102698 176 156 136
2.56843 -13.1565 4.70158 -0.865606 0.486878 -0.116949 180 160 139
6.83976 -27.4784 11.7854 -0.939237 0.228989 -0.255728 32 24 19
6.83976 -27.4784 11.7854 -0.939237 0.228989 -0.255728 33 25 20
4.43796 -26.522 10.7381 0.713171 0.678595 -0.175772 90 54 35
4.49706 -26.8306 10.9314 0.672616 0.722642 -0.159301 87 48 28
6.66247 -12.1177 5.47199 0.374957 0.574078 -0.727903 107 62 64
4.46106 -26.7348 10.9293 0.638518 0.768978 -0.0311187 128 88 62
4.46607 -26.7227 10.9187 0.65011 0.756459 -0.0716038 119 78 54
4.46477 -26.6909 10.9128 0.657636 0.748087 -0.0887702 129 89 65
4.4615 -26.6886 10.9146 0.666598 0.735835 -0.119139 128 88 64
4.48802 -26.7363 10.9349 0.660571 0.746834 -0.0767142 129 89 67
4.46851 -26.7022 10.9191 0.676919 0.723759 -0.133989 126 87 63
4.48779 -26.7421 10.9377 0.639925 0.767535 -0.0372349 132 92 69
4.46867 -26.7002 10.9143 0.670946 0.728195 -0.139873 128 87 63
4.47009 -26.708 10.9219 0.676638 0.72399 -0.13416 123 83 59
6.84091 -12.0797 5.55103 0.529475 0.722484 -0.444605 87 75 62
4.37922 -26.5795 10.8929 0.628404 0.777821 0.0101849 141 102 77
4.38794 -26.6158 10.9089 0.630714 0.775989 0.00634804 141 102 77
4.38414 -26.5994 10.9009 0.628697 0.777596 0.00927365 141 102 77
4.43775 -26.6301 10.92 0.450708 0.853392 0.261887 145 104 80
4.40965 -26.5819 10.8948 0.613262 0.789421 0.0269237 139 99 75
4.42543 -26.6151 10.9216 0.55037 0.823871 0.135388 137 97 74
4.4001 -26.5827 10.9059 0.585666 0.806521 0.0807461 129 88 65
4.72949 -27.4992 11.3522 0.49433 0.842625 0.21359 154 113 86
4.70028 -27.4504 11.3268 0.506954 0.836666 0.207335 161 119 91
6.64618 -12.011 5.47731 0.390316 0.612469 -0.687412 89 55 53
10.3629 -21.6376 10.5925 -0.0357049 0.0637186 -0.997329 88 55 42
6.6239 -11.9548 5.49182 0.32646 0.473269 -0.818193 39 10 11
6.55301 -25.9708 11.3586 -0.207593 0.8008 0.561805 27 26 15
7.09062 -25.2428 11.2498 0.436406 0.353927 -0.827215 17 27 12
6.29899 -11.7645 5.34075 0.38755 0.585223 -0.712264 97 61 60
6.52166 -24.7935 10.9393 0.594092 0.797962 -0.101544 17 31 19
6.62614 -26.8172 11.8999 0.515728 0.850769 0.101075 37 25 19
6.57952 -24.7968 11.0695 0.442569 0.876952 0.187317 21 40 27
6.43444 -24.3946 10.8544 0.414937 0.88448 0.21336 21 40 27
10.4998 -21.6686 10.8805 -0.164618 -0.00292727 -0.986353 94 60 46
5.3172 -26.3394 11.4243 0.522287 0.370277 -0.768187 110 81 66
6.02016 -27.8452 12.2813 0.420557 0.873044 0.246834 121 103 90
4.01885 -17.3377 7.21776 0.626741 0.644325 -0.438224 94 87 71
5.57384 -27.156 11.9464 0.685189 0.708024 -0.170935 116 85 68
5.57661 -27.1528 11.9445 0.558392 0.422076 -0.714178 117 84 68
5.93229 -27.7877 12.2834 0.511647 0.84833 0.13621 102 78 66
4.00253 -17.7119 7.42107 0.334576 0.311547 -0.88938 69 68 61
3.88502 -17.0827 7.10812 0.643143 0.702354 -0.305068 51 54 41
3.88502 -17.0827 7.10812 0.643143 0.702354 -0.305068 51 54 41
3.92639 -17.0925 7.1177 0.648799 0.671857 -0.357306 64 62 51
6.61428 -25.4466 11.5056 0.203208 0.893644 0.400134 30 50 30
6.61428 -25.4466 11.5056 0.203208 0.893644 0.400134 31 52 30
6.65894 -25.3943 11.4917 0.328718 0.894475 0.303081 24 46 26
10.2252 -21.3935 10.8359 -0.0882547 0.0175629 -0.995943 84 53 39
10.4637 -21.4424 10.9557 0.228792 0.381573 -0.895576 83 55 41
4.49053 -26.7413 11.5227 0.687673 0.688496 -0.230391 129 90 66
5.57007 -26.9884 11.9405 0.666162 0.703443 -0.247782 125 90 77
3.92219 -17.4392 7.29159 0.381464 0.330159 -0.863412 76 73 64
5.98989 -27.8704 12.4021 0.567309 0.822339 0.0438162 108 85 71
3.86974 -17.0263 7.108 0.63788 0.687549 -0.346966 44 49 36
5.29953 -26.5846 11.7026 0.641234 0.535503 -0.549596 134 90 73
5.30474 -26.6053 11.7133 0.634585 0.519754 -0.571976 134 90 73
5.43435 -26.771 11.8732 0.662978 0.713359 -0.227112 141 99 83
5.45824 -26.8043 11.8837 0.612942 0.490497 -0.619447 137 96 79
5.42785 -26.7632 11.8697 0.639407 0.467673 -0.610279 138 98 78
3.92767 -17.5013 7.38106 -0.0447898 0.206215 -0.977481 67 67 55
3.92884 -17.5073 7.38303 -0.0230565 0.21059 -0.977303 69 68 56
3.9436 -17.3634 7.30535 0.242005 0.229238 -0.942806 88 84 74
3.86968 -16.9356 7.11075 0.648555 0.668749 -0.363525 67 65 53
4.31452 -26.0887 11.3081 0.683122 0.696573 -0.219388 148 106 81
4.36133 -26.0547 11.2527 0.629518 0.501157 -0.593759 139 98 73
5.38072 -26.6862 11.8447 0.606337 0.478484 -0.635145 148 103 84
5.52933 -26.8782 12.0007 0.613003 0.476028 -0.630575 112 70 60
5.52525 -26.8806 12.0226 0.588127 0.453258 -0.669823 111 69 59
5.60372 -26.9993 12.0574 0.670312 0.627494 -0.396148 109 69 61
3.93178 -17.0179 7.22609 -0.123713 0.223086 -0.966917 119 109 92
4.49763 -26.6499 11.6609 0.550402 0.823567 0.137095 146 104 79
5.3687 -26.5995 11.9216 0.584033 0.446743 -0.677736 126 81 68
5.52162 -26.8771 12.0402 0.608834 0.452963 -0.651264 105 62 54
5.51426 -26.8549 12.0287 0.586419 0.450591 -0.673113 103 61 51
3.8565 -16.953 7.21683 0.641764 0.725483 -0.248623 40 50 36
3.82876 -16.8438 7.16393 0.646285 0.706622 -0.288098 51 50 37
3.95148 -17.0349 7.28923 0.635194 0.740311 -0.220156 141 115 97
4.42112 -27.28 11.9749 0.535371 0.828701 0.163194 127 86 56
4.43157 -26.9158 11.8274 0.463137 0.854248 0.236146 134 92 66
3.827 -16.7766 7.13912 0.648508 0.687709 -0.326335 76 75 63
3.81487 -16.7372 7.15623 0.634583 0.748515 -0.192429 65 62 52
3.88658 -16.8122 7.20856 -0.0983571 0.206114 -0.973572 101 94 81
6.59584 -25.43 11.7836 -0.928569 0.371135 -0.00437642 71 71 26
6.80109 -24.9424 11.6967 0.0320553 0.192188 -0.980834 25 37 25
4.4873 -25.7514 11.4495 0.65108 0.479797 -0.588124 120 78 58
4.5094 -24.9857 11.1874 0.396896 0.263359 -0.87927 111 68 52
3.97438 -21.0255 9.23207 0.071916 0.843292 0.532623 148 132 113
6.76109 -25.3208 12.0346 0.339131 0.901484 0.268917 26 36 25
6.67454 -25.377 12.0923 0.451017 0.879779 0.150239 49 60 49
8.33724 -25.1243 12.5047 0.469504 0.774208 -0.424462 146 127 126
6.64789 -25.324 12.1359 0.4262 0.888497 0.170077 44 51 42
6.65808 -25.3267 12.1345 0.370474 0.899388 0.232057 43 50 40
4.24219 -17.4156 7.84644 0.415814 0.659968 -0.625732 157 135 129
6.52953 -24.933 11.9629 0.395246 0.896122 0.201857 43 50 40
4.08583 -21.5126 9.70843 0.583227 0.439485 -0.683153 216 64 76
4.26985 -17.4403 7.8766 0.565082 0.695907 -0.443166 150 129 126
6.5063 -25.2147 12.1721 0.472226 0.874598 0.109916 22 28 20
3.93368 -20.9245 9.43174 0.163885 0.114546 -0.979807 212 65 76
4.15104 -21.3315 9.70263 0.508859 0.327232 -0.79623 179 38 52
4.72747 -21.7027 10.0441 0.581046 0.406006 -0.705369 143 10 24
6.70472 -23.7498 11.6059 0.0109052 0.0513941 -0.998619 94 83 85
8.40922 -19.5402 10.2224 -0.920028 0.349269 0.177652 29 16 11
3.97706 -21.1466 9.60185 0.257319 0.177888 -0.949812 148 16 31
4.54944 -21.5174 9.94282 0.486074 0.395937 -0.779081 136 30 41
4.42209 -20.9247 9.65436 0.47935 0.334349 -0.81144 127 10 26
4.60744 -21.4658 9.96157 0.564273 0.393228 -0.725925 120 8 21
4.59495 -21.4093 9.92259 0.570461 0.397415 -0.718774 117 7 16
4.58293 -21.3376 9.87675 0.604191 0.443517 -0.662001 128 9 23
4.66436 -21.3042 9.87182 0.579435 0.419978 -0.698479 130 11 26
4.75739 -21.3635 9.96049 0.605783 0.453123 -0.653992 95 9 15
6.25492 -24.187 11.7357 0.461389 0.878341 0.125055 20 24 18
6.23197 -24.1322 11.7045 0.349069 0.936847 -0.0216486 19 22 18
3.81216 -20.817 9.41698 -0.0176325 0.540867 -0.840924 152 23 36
4.09805 -21.1474 9.69448 0.607298 0.4802 -0.632927 147 7 27
4.09749 -21.1727 9.70153 0.586881 0.450039 -0.673079 145 7 26
4.19253 -21.2575 9.74182 0.521249 0.386886 -0.76067 158 12 33
4.47757 -20.8554 9.66294 0.57037 0.425743 -0.702439 107 10 21
4.59412 -21.1785 9.84533 0.594042 0.435463 -0.676377 111 10 24
4.62711 -21.0802 9.84243 0.578181 0.414234 -0.702935 79 8 14
4.61842 -21.0459 9.82745 0.616925 0.466353 -0.63397 77 8 14
6.45789 -22.4641 11.0438 0.0355925 0.0636012 -0.99734 117 109 101
4.0039 -20.9728 9.61962 0.689372 0.672946 -0.26816 154 16 40
4.16363 -21.1498 9.75329 0.60895 0.480202 -0.631337 158 17 37
4.18879 -21.1519 9.77832 0.588692 0.476956 -0.652652 168 22 42
9.3568 -22.4953 12.0805 -0.670256 0.497332 -0.550834 56 35 25
3.79436 -20.1834 9.21963 0.632309 0.515701 -0.578133 156 20 42
3.94496 -20.7098 9.56283 -0.132624 0.844991 0.518075 137 40 50
7.51978 -23.0154 -1.60597 -0.958421 0.23871 0.156356 202 179 175
7.70033 -22.7188 -1.53242 -0.902963 0.241642 0.35534 251 242 237
7.47197 -21.8396 -1.5143 -0.359275 0.744006 0.563362 236 213 199
7.68071 -22.6967 -1.45622 -0.96197 0.225443 0.154238 250 242 238
7.4877 -21.8608 -1.4433 -0.75215 0.35272 -0.55665 239 218 202
7.4501 -22.9906 -0.925724 -0.144967 0.462155 -0.87487 231 208 191
7.2092 -22.939 -0.874122 0.411726 0.727552 -0.548772 213 190 174
7.13321 -22.5832 -0.875918 0.452192 0.753135 -0.477818 219 196 179
7.14237 -22.6194 -0.859946 0.272254 0.65359 -0.706186 220 196 178
7.13035 -22.5218 -0.823748 -0.0260523 0.635808 -0.771408 211 187 166
7.14206 -22.6247 -0.822301 -0.04225 0.849981 -0.525117 218 194 174
7.15829 -22.3971 -0.850267 0.349721 0.704223 -0.617872 220 198 177
7.19444 -22.6011 -0.796845 0.167953 0.937632 -0.304366 202 175 156
7.45333 -22.8364 -0.329137 -0.972381 0.231607 -0.0288843 234 215 199
7.78169 -24.3579 0.501023 -0.300692 0.497667 0.813579 191 164 151
1.64157 -5.03645 0.903878 0.14476 0.309524 -0.939808 130 116 95
1.62711 -5.02049 0.913377 -0.243917 0.332194 -0.911126 121 108 86
1.59572 -5.00688 0.91092 -0.235965 0.210081 -0.948782 70 57 42
1.61287 -4.99309 0.915663 0.248255 0.532474 -0.809222 119 106 86
4.54972 -18.5341 6.49822 0.406968 0.459723 -0.789324 134 103 99
2.54247 -5.95315 1.50036 -0.922753 0.116634 -0.36732 110 97 82
1.58584 -4.98766 0.918118 -0.258836 0.387453 -0.884807 77 64 49
4.22047 -18.2759 6.35177 0.611296 0.788103 -0.0721885 127 120 110
4.2266 -18.3005 6.36227 0.621231 0.776359 -0.106482 123 116 106
1.57853 -4.97355 0.928015 -0.00624365 0.708111 -0.706074 86 73 57
1.57832 -4.9731 0.928055 0.0790449 0.644765 -0.760283 86 73 57
1.5982 -4.97661 0.9237 -0.284114 0.400994 -0.870909 119 105 86
1.59112 -4.96754 0.93287 -0.238972 0.627314 -0.741194 119 106 88
2.53841 -5.92614 1.53281 -0.464146 0.0288455 -0.885289 110 97 79
1.55973 -4.96417 0.934013 -0.200224 0.632808 -0.747973 64 50 37
1.5613 -4.96561 0.934599 -0.400732 0.594961 -0.696732 64 51 37
1.57935 -4.96185 0.944192 -0.639468 0.533758 -0.553338 104 89 74
1.57906 -4.96238 0.943062 -0.64891 0.52791 -0.54793 102 88 73
1.59203 -4.96407 0.948972 -0.306939 0.828525 -0.468332 119 105 88
1.56128 -4.97918 0.953869 -0.346948 0.569595 -0.74511 65 50 39
1.56833 -4.96322 0.955828 -0.783659 0.308178 -0.539356 71 55 44
1.56646 -4.95878 0.950446 -0.598948 0.355451 -0.717577 72 57 45
1.57939 -4.95482 0.957475 -0.515618 0.579224 -0.631377 104 89 76
1.57913 -4.95592 0.956625 -0.450484 0.638796 -0.623702 103 88 75
1.55652 -4.96327 0.966457 -0.83294 0.192961 -0.518629 67 52 41
1.56529 -4.95913 0.971586 -0.800406 0.150755 -0.580192 69 54 43
1.58102 -4.95429 0.972127 -0.679825 0.587197 -0.439361 97 84 70
4.15209 -18.3169 6.61813 0.408751 0.875443 0.257921 34 50 30
4.47323 -12.0049 4.46252 0.396502 0.488866 -0.777043 159 142 118
7.63344 -13.2275 5.96375 0.269637 0.420425 -0.866336 79 15 24
7.52623 -12.9998 5.89087 0.310721 0.482937 -0.818672 63 14 18
7.52623 -12.9998 5.89087 0.310721 0.482937 -0.818672 63 14 18
7.51271 -12.9177 5.87355 -0.0471253 0.0821394 -0.995506 46 10 14
7.55609 -12.8575 5.88075 -0.0463829 0.0814986 -0.995594 21 7 10
2.83476 -7.01936 2.27607 0.0480489 0.190751 -0.980462 116 107 92
7.4586 -12.8322 5.86897 0.318556 0.495943 -0.807814 41 9 15
2.78462 -6.9913 2.27645 0.370097 0.648907 -0.664791 94 90 86
7.40366 -12.7659 5.87992 0.311775 0.480094 -0.819943 41 11 15
7.49718 -12.793 5.9245 0.362439 0.578975 -0.73036 18 6 9
6.67346 -12.1806 5.52315 0.393857 0.612402 -0.685449 62 13 18
6.76139 -25.1706 10.7382 0.172633 0.185234 -0.967412 13 16 12
7.19832 -25.6442 11.0917 0.592848 0.563496 -0.575329 24 30 21
6.61974 -24.1177 10.4691 0.383954 0.806168 -0.450192 25 29 21
6.55004 -25.9266 11.2639 0.0746043 0.895332 0.439107 25 23 15
6.65237 -25.2641 11.0148 0.658273 0.717917 -0.226434 13 27 14
6.63833 -25.0515 10.9446 0.627978 0.709437 -0.319912 12 21 12
6.56325 -25.0346 10.9778 0.617905 0.753934 -0.223108 20 38 24
5.57335 -27.1544 11.9456 0.685327 0.707824 -0.171204 112 81 64
3.90605 -16.8978 7.13552 0.643339 0.62877 -0.436764 83 79 65
6.61703 -25.4987 11.637 0.373979 0.891381 0.256085 69 75 37
6.61912 -25.5132 11.6365 0.180154 0.90874 0.376479 67 74 37
6.65515 -25.4367 11.6468 -0.265853 0.944689 0.192053 63 72 35
3.87925 -17.1085 7.36707 0.6451 0.717905 -0.261646 35 36 25
3.88367 -17.1226 7.36539 0.640417 0.733057 -0.229116 37 34 24
3.88048 -17.1149 7.35561 0.643837 0.720729 -0.25695 36 37 25
3.87803 -17.1108 7.35282 0.643857 0.722603 -0.251581 31 37 23
3.88348 -17.1222 7.35738 0.648842 0.694976 -0.309858 36 37 26
3.88369 -17.1274 7.36202 0.646023 0.711265 -0.27705 35 36 25
3.77803 -16.6617 7.16583 0.321176 0.907779 0.269784 57 60 49
3.80395 -16.8351 7.25006 0.310539 0.946718 -0.0853813 28 39 24
3.82318 -16.81 7.24824 -0.0307574 0.833552 0.551585 66 62 44
8.46181 -25.1592 12.5293 -0.256673 0.0687394 -0.964051 126 108 107
8.40615 -25.1384 12.5444 0.583532 0.613873 -0.531648 142 124 124
6.59537 -25.1894 12.0779 0.431066 0.887655 0.162021 45 51 42
4.80254 -21.4077 9.94325 0.609905 0.458362 -0.646468 106 11 18
8.48664 -25.6526 13.0916 0.116626 0.915364 0.385367 230 122 80
8.50226 -25.5208 13.0492 0.431244 0.898023 0.0870809 240 128 82
5.93019 -23.3842 11.5668 0.271857 0.180547 -0.945249 36 32 29
6.71389 -22.9964 11.6575 -0.642476 0.274214 -0.715563 157 149 136
5.82817 -22.9454 11.431 0.109045 0.0722498 -0.991408 49 45 38
5.93241 -23.1945 11.5705 0.461814 0.86479 -0.197148 83 78 71
4.22482 -18.4273 8.90209 0.447988 0.884797 0.128221 144 130 114
4.09302 -18.2471 8.84596 0.356544 0.906838 0.22477 114 107 92
4.08284 -18.2072 8.86203 0.529076 0.495303 -0.689023 44 37 35
4.3173 -15.0401 5.01583 0.441245 0.89576 0.0540179 181 163 143
4.16066 -15.3817 5.18214 0.17155 0.898004 0.405166 165 146 129
4.15316 -15.3144 5.1552 0.164275 0.897354 0.409596 165 146 129
4.49783 -18.325 6.51135 0.322125 0.479353 -0.816368 107 74 85
4.50988 -18.2416 6.54101 0.113223 0.622854 -0.774102 163 146 141
4.54836 -18.3033 6.52479 0.636474 0.717711 -0.282475 174 138 138
6.56349 -11.9962 5.45515 -0.965289 0.159401 0.206901 109 66 70
5.16036 -19.736 7.36444 -0.0375975 0.992307 -0.117954 85 94 106
5.11374 -23.8051 8.49098 0.244993 0.868198 0.431522 179 157 140
5.04186 -23.7911 8.54301 0.464845 0.857645 0.219918 152 130 115
5.34493 -24.5755 8.81536 0.391511 0.867042 0.308151 183 160 144
5.64292 -19.7428 7.5808 -0.626496 0.779238 0.0170323 150 137 127
5.29291 -24.6836 8.8967 0.501806 0.847654 0.172258 156 132 114
5.05893 -23.9839 8.70326 0.475353 0.846557 0.239543 153 129 112
5.05893 -23.9839 8.70326 0.475353 0.846557 0.239543 156 133 116
5.16474 -24.4651 8.88856 0.501865 0.847633 0.172192 152 128 108
5.22348 -24.6594 8.90631 0.461384 0.856739 0.230487 151 130 113
5.15163 -24.3952 8.85863 0.487846 0.842748 0.227557 136 113 95
5.11073 -24.4449 8.87933 0.468875 0.846501 0.252176 158 133 115
5.15573 -24.4077 8.87609 0.461004 0.848632 0.259422 152 126 105
5.15573 -24.4077 8.87609 0.461004 0.848632 0.259422 135 112 93
5.81292 -20.5305 7.94266 0.549843 0.808269 -0.210652 123 120 128
5.67206 -19.8462 7.71903 0.0638497 0.865016 0.497666 154 142 130
5.63191 -19.9027 7.79384 0.394146 0.885286 0.246815 112 114 123
5.65443 -19.8343 7.77453 0.297187 0.891662 0.341494 159 150 141
5.67389 -20.1399 7.96533 0.355673 0.888944 0.288574 40 66 91
5.78295 -20.5043 8.06633 0.583974 0.808652 -0.0711042 43 67 91
5.84093 -27.0669 9.99259 0.499502 0.845543 0.188561 153 128 112
5.86178 -27.1882 10.0219 0.544135 0.827703 0.137205 153 128 112
5.73049 -20.3125 8.03928 0.354443 0.88876 0.290648 36 63 88
5.81115 -26.9039 9.99002 0.512982 0.835093 0.198667 149 123 108
5.86696 -26.8628 9.94941 0.511368 0.840948 0.176943 155 130 115
5.61229 -20.1754 8.04798 0.298143 0.904179 0.305894 34 59 76
5.64738 -20.3033 8.09657 -0.0222621 0.847599 0.53017 28 49 66
3.88502 -17.0827 7.10812 0.643143 0.702354 -0.305068 38 49 36
3.90474 -17.2034 7.15051 0.646243 0.679216 -0.347902 31 45 32
8.15888 -19.3327 8.58811 0.351171 0.466665 -0.811728 87 70 64
7.41836 -18.3962 8.20418 0.462786 0.526734 -0.713009 87 72 64
7.48255 -18.4422 8.23738 0.494272 0.576155 -0.650954 105 86 77
7.54809 -18.4986 8.28743 0.536844 0.736493 -0.411554 95 77 69
7.54459 -18.4644 8.24786 0.481019 0.563557 -0.671583 83 65 57
7.43179 -18.3384 8.23206 0.462221 0.884914 -0.0572669 83 64 54
7.46613 -18.39 8.26152 0.513367 0.836922 -0.18978 110 90 79
7.59704 -18.4983 8.31062 0.50557 0.845287 -0.172883 101 81 69
7.65609 -18.5847 8.35106 0.531301 0.781389 -0.327338 90 67 58
8.10795 -19.1646 8.60422 0.375695 0.921929 0.0943367 69 47 39
8.40555 -19.4795 8.74505 0.0630651 0.518027 -0.853036 72 48 40
3.67584 -16.5411 7.18967 0.365719 0.436399 -0.822074 63 69 54
3.7185 -16.7544 7.23941 0.418779 0.338726 -0.842549 60 58 48
3.6726 -16.5297 7.18129 0.258379 0.377563 -0.889205 62 67 52
3.71313 -16.6941 7.21736 0.645898 0.710728 -0.278712 31 47 30
3.7201 -16.7113 7.22702 0.648591 0.704579 -0.287921 31 47 30
3.71873 -16.6434 7.22964 0.56078 0.444958 -0.698239 51 43 32
3.71343 -16.6945 7.21849 0.649033 0.699851 -0.29827 31 47 30
3.70559 -16.6044 7.20069 0.579403 0.475359 -0.662062 46 44 34
3.74845 -16.6568 7.24171 0.498737 0.377726 -0.780118 50 46 37
3.80428 -16.7737 7.25607 0.450646 0.888636 -0.08512 57 71 53
7.43697 -18.4157 8.32787 0.41609 0.908577 0.0368468 89 66 57
7.53721 -18.4646 8.34213 0.468505 0.881234 -0.0626897 84 62 52
3.66442 -16.6575 7.25327 0.259383 0.291785 -0.920642 73 69 58
3.71217 -16.6116 7.22395 0.55145 0.43761 -0.710211 48 45 36
3.72075 -16.619 7.23583 0.509189 0.390704 -0.766861 50 47 38
3.71398 -16.6363 7.24135 0.610387 0.523443 -0.594504 46 44 34
3.71217 -16.6116 7.22395 0.55145 0.43761 -0.710211 48 45 36
3.75755 -16.6507 7.25155 0.541957 0.423251 -0.726045 61 58 49
3.75646 -16.648 7.25014 0.542225 0.423914 -0.725458 61 58 49
7.27916 -18.2375 8.27328 0.440255 0.897861 0.00473469 78 55 47
3.72286 -16.5536 7.26341 0.405298 0.32571 -0.854193 116 107 97
4.34426 -26.6862 10.5442 0.137017 0.974277 -0.178916 161 120 96
7.29694 -25.5045 10.6706 0.153859 0.885454 0.438518 38 54 73
4.30012 -26.4656 10.5416 0.602724 0.615514 -0.507805 164 123 101
4.31729 -26.515 10.5745 0.182574 0.510332 -0.840374 164 123 101
4.38853 -26.612 10.5792 0.632058 0.499467 -0.592483 130 90 70
4.50848 -22.1468 9.24174 0.0476951 0.858548 0.510511 105 89 78
4.28586 -26.3643 10.5949 0.655788 0.750772 -0.0792674 166 125 102
4.40831 -26.6039 10.677 0.67809 0.716298 -0.164654 146 107 87
4.38314 -26.4764 10.6528 0.70786 0.612338 -0.352104 146 106 86
4.51043 -26.671 10.674 0.680487 0.716428 -0.153845 122 84 68
4.44642 -22.1497 9.27358 0.197919 0.873983 0.443825 124 106 94
4.62858 -22.1459 9.30743 -0.730826 0.597716 0.32959 108 94 84
4.27563 -26.2931 10.61 0.710437 0.600086 -0.367664 163 123 100
4.29923 -26.2873 10.5927 0.7546 0.601482 -0.262295 162 125 102
4.3617 -26.4408 10.6406 0.714906 0.678135 -0.170416 156 117 96
4.492 -22.1347 9.29666 0.185953 0.982298 0.0226247 127 109 96
4.66191 -22.2417 9.36938 -0.62231 0.760027 0.187319 116 102 90
4.68452 -22.1008 9.32019 -0.819262 0.557757 0.133108 118 104 93
4.34469 -26.3946 10.7098 0.701016 0.70836 -0.0824748 136 98 78
4.33814 -26.3602 10.7018 0.695627 0.716032 -0.0583186 137 98 78
4.67944 -27.1846 11.0147 0.558414 0.820302 0.123609 76 40 24
4.81336 -27.4273 11.103 0.595904 0.792383 0.130485 72 38 24
4.82166 -27.4415 11.1078 0.595223 0.791457 0.138946 77 42 25
4.32396 -21.8749 9.24092 0.563135 0.819861 0.103473 153 129 110
4.33917 -21.6298 9.20223 0.543584 0.829784 0.126394 144 119 105
4.34991 -21.7231 9.19484 0.602409 0.797642 0.0295176 140 117 98
6.725 -25.2689 10.764 -0.407483 0.556463 -0.72409 15 25 16
6.5765 -24.0576 10.3513 0.548779 0.4866 -0.679751 19 23 18
2.53364 -28.8224 11.2672 0.79228 0.51593 -0.325744 116 100 88
2.97823 -24.5895 9.99852 0.657676 0.46872 -0.589715 143 98 75
2.96773 -24.5568 9.98256 0.657402 0.468355 -0.590311 144 98 75
2.97581 -24.573 9.98909 0.670444 0.465126 -0.578068 141 95 73
3.91407 -27.0024 10.8942 -0.886803 0.452568 0.0936053 136 94 71
3.95999 -26.8752 10.8837 -0.815282 0.517385 0.260053 156 113 88
4.00574 -26.314 10.6953 0.495562 0.839791 0.221743 164 121 97
4.78959 -27.4376 11.1605 0.483618 0.831082 0.27462 94 57 40
4.76768 -27.4151 11.2011 0.0991259 0.847261 0.521845 132 93 72
4.07608 -21.0711 9.02085 0.538797 0.831635 0.134466 154 124 108
4.20357 -20.8808 8.97829 0.529227 0.835745 0.146453 150 121 108
6.66413 -24.5039 10.518 0.546942 0.826716 -0.131887 17 22 13
2.46934 -28.7479 11.275 0.800414 0.548315 -0.242257 112 99 85
2.75954 -24.2457 9.87652 0.591598 0.44598 -0.67165 149 104 81
2.77416 -24.2832 9.89739 0.572454 0.368878 -0.732275 140 94 72
2.76178 -24.2396 9.8757 0.590253 0.44511 -0.673409 148 104 81
2.75954 -24.2457 9.87652 0.591598 0.44598 -0.67165 149 104 81
2.76178 -24.2396 9.8757 0.590253 0.44511 -0.673409 148 104 81
2.84716 -24.4437 9.93182 0.68058 0.486533 -0.547811 145 98 76
2.84716 -24.4437 9.93182 0.68058 0.486533 -0.547811 145 98 76
3.01013 -24.4367 9.98999 0.649727 0.460473 -0.60483 145 101 79
3.00895 -24.4267 9.98568 0.675242 0.473931 -0.565188 142 99 77
4.00842 -26.65 10.8419 0.531075 0.824959 0.193397 165 122 97
4.01921 -26.5272 10.8532 0.522635 0.828514 0.201042 161 118 94
3.99401 -26.3344 10.734 0.466509 0.843567 0.266015 163 120 96
4.29879 -26.2806 10.8127 0.475527 0.845027 0.244547 140 98 75
4.07639 -20.6584 8.94051 -0.269867 0.790943 0.549163 169 133 115
2.56057 -28.8982 11.436 0.723248 0.499232 -0.477157 149 119 100
2.63559 -28.7889 11.4272 0.524442 0.318262 -0.789728 155 118 94
2.71761 -24.0726 9.89741 0.737435 0.61154 -0.286721 159 114 90
2.71879 -24.0371 9.88083 0.720724 0.58994 -0.364044 155 110 87
2.83341 -24.2832 9.96066 0.639288 0.433001 -0.635469 150 106 85
2.8625 -24.3019 9.96571 0.684353 0.493261 -0.536988 151 108 87
2.88936 -24.264 9.98327 0.625359 0.468397 -0.624124 199 166 147
2.88901 -24.2662 9.9819 0.697416 0.493336 -0.519837 188 152 132
2.96214 -24.402 10.0123 0.654915 0.477974 -0.585344 160 121 100
3.91944 -26.5514 10.9024 0.55991 0.816691 0.139705 150 107 81
3.9557 -26.6732 10.9468 0.571972 0.808933 0.135924 147 105 80
3.95213 -26.6272 10.9339 0.592302 0.798514 0.10749 151 108 82
3.93357 -26.2749 10.7949 0.558074 0.810918 0.175971 159 117 92
3.95143 -26.6346 10.9349 0.591604 0.798792 0.109251 147 105 80
3.96296 -26.3525 10.8155 0.411751 0.887148 0.208396 161 118 93
3.93568 -26.1304 10.7383 0.439941 0.858322 0.264076 161 118 93
4.23592 -26.2267 10.8488 0.622599 0.78196 0.0301417 162 120 96
4.30359 -26.2513 10.842 0.483154 0.843534 0.234547 134 92 70
4.11175 -20.5985 8.94484 0.435676 0.843663 0.313718 162 146 121
2.65149 -23.9315 9.8529 0.365004 0.287311 -0.885564 151 105 80
2.73839 -23.9701 9.91429 0.697396 0.486126 -0.526612 157 115 95
2.79469 -24.1659 9.94302 0.523896 0.330449 -0.785071 157 116 96
2.95463 -24.2518 10.0433 0.667795 0.461272 -0.58419 243 224 208
3.22614 -24.3738 10.107 0.724365 0.642996 -0.248697 147 106 80
3.90878 -26.5989 10.9452 0.532054 0.827368 0.179945 149 105 79
3.91439 -26.7146 11.0179 0.32016 0.860032 0.397295 147 105 78
3.92286 -26.4758 10.9327 0.573394 0.810562 0.1192 149 105 80
3.92614 -26.4528 10.9244 0.610781 0.788404 0.073248 149 106 80
3.94854 -26.4137 10.8972 0.359524 0.859842 0.36251 154 111 86
3.95171 -26.4392 10.9111 0.398723 0.876439 0.269952 153 110 84
3.92367 -26.4768 10.9174 0.57311 0.808823 0.131719 148 105 80
3.9208 -26.4407 10.9079 0.586615 0.800743 0.12122 148 105 80
4.11659 -25.9518 10.8067 0.535413 0.826325 0.174697 161 119 95
4.2647 -26.1516 10.8647 0.272378 0.868048 0.415094 148 106 82
4.14247 -21.1781 9.21454 0.5245 0.838284 0.148928 168 136 119
4.27461 -21.6528 9.40322 0.534069 0.83398 0.138734 172 139 122
4.26983 -21.6232 9.36363 0.537226 0.832609 0.134722 150 123 108
8.11067 -23.9952 10.7841 0.229333 0.910818 0.343245 90 82 78
2.74697 -28.7021 11.5307 0.285452 0.499115 -0.81817 180 131 104
2.67744 -23.8964 9.91332 0.736318 0.621158 -0.268326 157 111 88
2.68314 -23.7796 9.85995 0.56953 0.329698 -0.752951 152 107 85
2.68314 -23.7796 9.85995 0.56953 0.329698 -0.752951 152 107 85
3.88304 -26.4077 10.9219 0.600797 0.794706 0.0865218 148 105 79
3.8838 -26.4275 10.9274 0.622325 0.781376 0.0465223 148 105 79
3.88118 -26.4097 10.9259 0.575072 0.806071 0.139794 148 105 79
3.88263 -26.4112 10.9264 0.582332 0.802713 0.128618 148 105 79
3.88273 -26.4185 10.928 0.589039 0.797445 0.13082 148 105 79
3.88354 -26.424 10.9279 0.590024 0.80054 0.104919 148 105 79
3.8741 -26.4069 10.9246 0.624689 0.779748 0.0419148 148 105 79
4.12234 -25.9776 10.817 0.465538 0.846393 0.258638 161 119 95
2.66125 -28.5599 11.5341 0.551233 0.334257 -0.764471 179 131 104
2.92883 -28.3191 11.4808 -0.162975 0.802694 0.57369 150 99 70
2.95868 -28.0575 11.4035 0.33123 0.847015 0.415755 155 104 75
3.84264 -26.3158 10.9774 0.662292 0.694924 -0.28009 147 103 77
3.76646 -24.9678 10.5277 0.537233 0.82249 0.186794 155 112 87
3.77366 -24.9079 10.5221 0.526362 0.826178 0.200933 155 112 86
3.77242 -24.6681 10.4307 0.599808 0.792004 0.113847 146 103 78
3.77123 -24.6634 10.4283 0.597699 0.793016 0.117821 148 105 81
4.11933 -21.0699 9.29435 0.36763 0.813253 0.451074 175 144 124
1.59556 -31.3398 12.3441 -0.724181 0.644651 -0.244924 95 77 68
1.71228 -31.3125 12.3846 -0.128811 0.858615 -0.496174 106 86 77
1.81993 -31.2854 12.3682 -0.173313 0.816286 0.551036 107 87 77
1.98796 -31.6101 12.527 0.73337 0.677436 -0.056996 107 87 79
1.98796 -31.6101 12.527 0.73337 0.677436 -0.056996 107 87 79
2.68226 -28.4752 11.5413 0.708835 0.50223 -0.495295 174 125 98
2.68537 -28.4817 11.5452 0.688203 0.467246 -0.555029 173 124 97
2.90124 -28.2666 11.5151 -0.121579 0.813504 0.56871 153 101 72
2.74705 -23.7736 9.98007 0.291234 0.252692 -0.922675 235 213 198
3.76886 -26.0728 10.972 0.662532 0.461734 -0.58979 145 100 74
3.76887 -26.0728 10.972 0.655509 0.452895 -0.604312 145 100 74
3.64828 -24.4485 10.3763 0.290038 0.873905 0.390086 150 108 83
3.97995 -25.9462 10.9306 0.303911 0.866183 0.396694 157 113 90
4.08629 -25.9526 10.9656 0.56147 0.816318 0.135558 166 123 93
7.05873 -25.1024 11.1872 0.558103 0.515175 -0.650473 20 29 20
7.10118 -25.1532 11.2151 0.530954 0.465047 -0.708392 20 28 17
1.88438 -31.3482 12.4468 0.622561 0.762411 0.176486 110 90 81
1.88418 -31.3468 12.4461 0.615535 0.765628 0.186898 112 93 83
1.88418 -31.3468 12.4461 0.615535 0.765628 0.186898 112 93 83
1.88438 -31.3482 12.4468 0.622561 0.762411 0.176486 112 93 83
1.92716 -31.3588 12.4514 0.431295 0.872871 0.228213 101 83 73
2.07372 -31.8842 12.6603 0.717166 0.459466 -0.523988 90 73 64
2.05688 -31.7194 12.6313 0.621687 0.763547 0.174647 104 85 76
2.07202 -31.872 12.6547 0.731341 0.480022 -0.484478 90 73 64
2.17908 -31.8698 12.7167 0.322897 0.604017 -0.72863 115 93 83
2.41663 -28.2667 11.5144 0.28435 0.850085 0.443284 177 130 103
2.38951 -28.2321 11.5076 0.63023 0.761269 0.152573 180 134 106
2.40001 -28.2753 11.5221 0.384851 0.835801 0.391568 169 124 98
2.55862 -28.4438 11.6119 0.563791 0.795952 0.220454 175 127 100
2.57106 -23.4559 9.89963 0.738239 0.649802 -0.181 157 112 87
2.67479 -23.4988 9.95399 0.206092 0.243362 -0.947788 195 169 154
2.67981 -23.5064 9.96847 0.431825 0.28364 -0.856198 194 167 151
2.71118 -23.7108 10.0302 0.672078 0.71479 -0.193358 198 170 154
2.91292 -23.7309 10.0794 0.738037 0.569184 -0.362396 235 217 205
3.07651 -24.072 10.2156 0.308687 0.25376 -0.916689 168 133 115
3.21821 -24.2284 10.3125 0.390312 0.88808 -0.24284 148 101 78
3.49013 -24.6996 10.5027 0.323411 0.870999 0.36982 143 101 77
3.69283 -24.4081 10.4364 0.466004 0.850883 0.242567 148 105 80
4.02151 -25.9861 11.0136 0.535361 0.822921 0.190238 139 99 78
1.84749 -31.2712 12.5354 0.649666 0.748407 0.133495 148 125 115
1.84789 -31.2741 12.5368 0.648485 0.749081 0.135447 148 125 115
1.84885 -31.281 12.54 0.649275 0.748639 0.134095 147 125 115
1.84789 -31.2741 12.5368 0.648485 0.749081 0.135447 148 125 115
1.84749 -31.2712 12.5354 0.649666 0.748407 0.133495 148 125 115
1.94827 -31.5146 12.6078 0.739042 0.668355 -0.0843707 105 85 77
1.94827 -31.5146 12.6078 0.739042 0.668355 -0.0843707 107 87 79
2.60213 -22.9844 9.83404 0.652345 0.75577 0.057073 181 162 151
2.64898 -23.5047 10.0167 0.646024 0.76117 0.0572198 159 130 114
2.82569 -23.7151 10.1172 0.679324 0.435947 -0.590312 205 186 173
2.97193 -23.7971 10.1704 0.629113 0.424881 -0.650917 212 188 175
2.95867 -23.7325 10.1233 0.598642 0.359514 -0.715806 207 184 171
2.97966 -23.7253 10.1559 0.722255 0.519241 -0.456877 203 179 167
3.09536 -24.0384 10.2769 0.720288 0.572078 -0.392315 155 120 103
3.18571 -24.2293 10.3388 0.710231 0.646734 -0.278043 146 102 81
3.45773 -24.638 10.5032 0.239531 0.861403 0.447896 135 96 75
6.97912 -24.5009 11.0791 0.513474 0.568304 -0.642943 71 75 65
1.03917 -32.2121 12.7875 0.600212 0.410982 -0.686177 165 147 137
1.13795 -31.3255 12.4934 0.130586 0.195652 -0.97194 179 158 148
2.10917 -31.7782 12.8209 0.704164 0.440149 -0.557155 177 154 143
2.48177 -28.3418 11.6809 0.625859 0.767377 0.139399 171 123 95
2.48177 -28.3418 11.6809 0.625859 0.767377 0.139399 171 123 96
2.48294 -23.38 9.99691 0.618103 0.76742 0.17034 102 84 88
2.48049 -22.9606 9.85352 0.590853 0.791832 0.15458 88 78 92
2.49897 -23.0029 9.8742 0.636298 0.765769 0.0933923 84 77 91
2.5179 -22.7663 9.80248 0.574591 0.79907 0.17701 95 86 96
2.52606 -22.8555 9.82456 0.627469 0.771958 0.101801 98 88 99
2.52168 -22.781 9.81008 0.64086 0.763691 0.0779393 91 82 93
2.53175 -22.7987 9.81345 0.64067 0.763536 0.0809653 106 95 101
2.58362 -22.7298 9.76824 0.570073 0.801553 0.180361 188 170 159
2.58039 -22.7749 9.78877 0.624278 0.774059 0.105407 182 165 155
2.90674 -23.7181 10.189 0.708879 0.699791 -0.0882243 220 201 190
2.97627 -23.7144 10.2075 0.649976 0.466942 -0.59958 215 191 179
3.07321 -23.9966 10.3158 0.725319 0.62016 -0.298853 183 152 137
3.13029 -24.0533 10.3087 0.723508 0.5971 -0.346422 139 99 81
3.13785 -24.0662 10.358 0.708697 0.654609 -0.263126 132 93 75
3.38551 -24.6878 10.5995 0.499456 0.833111 0.237633 143 97 72
3.47664 -24.7501 10.6236 0.63559 0.770447 0.0493744 147 102 74
2.81707 -17.8597 8.16596 0.482468 0.333233 -0.810049 158 120 101
5.17542 -26.2764 11.4109 0.659128 0.575599 -0.483979 153 109 85
5.22359 -26.1808 11.3874 0.621188 0.482427 -0.617568 129 93 75
6.95687 -24.4301 11.0858 0.54046 0.556607 -0.630946 70 73 64
0.153359 -31.6621 12.4891 0.574806 0.280619 -0.768669 32 25 22
0.156803 -31.5862 12.4761 0.640014 0.322343 -0.697479 50 40 36
0.279299 -31.7015 12.5393 0.500653 0.455714 -0.735983 146 129 119
0.438183 -31.7001 12.5521 0.631892 0.323459 -0.704334 140 121 112
0.411326 -31.6532 12.5479 0.67279 0.375057 -0.63772 158 138 128
0.41117 -31.6517 12.5472 0.671425 0.36523 -0.644822 156 136 126
0.41117 -31.6517 12.5472 0.671425 0.36523 -0.644822 156 136 126
0.489639 -31.9247 12.6154 0.651488 0.337562 -0.679423 149 133 124
0.547105 -31.5853 12.5421 0.695754 0.376412 -0.611751 171 150 141
0.626939 -31.9163 12.6691 0.571689 0.28796 -0.768278 148 128 117
0.679166 -31.4588 12.515 0.446608 0.424176 -0.787792 191 168 159
0.811879 -32.2064 12.7986 0.57005 0.290463 -0.768553 141 123 111
0.855831 -31.4505 12.5414 0.640647 0.560621 -0.524667 199 177 167
0.9912 -32.0714 12.7775 0.647058 0.346247 -0.679286 162 142 132
0.986165 -32.2076 12.8397 0.529106 0.450981 -0.718793 166 147 136
1.00867 -32.172 12.8311 0.606912 0.549323 -0.574371 170 150 140
1.00867 -32.172 12.8311 0.606912 0.549323 -0.574371 170 150 140
1.06096 -31.1722 12.4641 0.102031 0.218541 -0.970479 199 177 168
1.91539 -31.4674 12.7108 0.665492 0.739178 0.103612 166 143 132
2.4595 -22.7018 9.80438 0.605869 0.793596 0.0559367 47 49 69
2.47729 -22.7154 9.78896 0.468306 0.850959 0.237819 64 60 79
2.43686 -22.5148 9.73341 -0.0119318 0.207096 -0.978248 40 40 59
2.44545 -22.6695 9.80149 0.468224 0.883297 0.023507 33 36 57
2.52583 -22.7742 9.81094 0.637031 0.766191 0.0845215 99 90 99
2.52436 -22.7715 9.80933 0.649186 0.757776 0.0658264 100 91 100
2.51125 -22.7655 9.81129 0.624476 0.773905 0.105361 79 72 86
2.51946 -22.7749 9.80823 0.65815 0.751463 0.0462797 89 80 91
2.51702 -22.7612 9.80409 0.652566 0.755689 0.055603 84 75 86
2.52513 -22.772 9.81117 0.653685 0.754634 0.0567686 98 90 99
2.78343 -23.255 10.0489 0.708587 0.696698 -0.111875 197 179 167
2.83234 -23.369 10.0912 0.636684 0.767338 0.0763348 207 189 177
2.95833 -23.7579 10.2511 0.712138 0.590071 -0.380362 218 199 188
2.93118 -23.6846 10.2329 0.729393 0.635068 -0.25431 202 185 173
2.97065 -23.7555 10.2294 0.725493 0.629141 -0.279003 216 194 183
3.18686 -24.0879 10.3933 0.727227 0.615775 -0.303252 131 89 68
3.19272 -24.0204 10.3713 0.528667 0.800306 -0.282881 126 83 62
0.0740283 -31.3999 12.4273 0.576887 0.508914 -0.638912 22 15 14
0.0791833 -31.4302 12.428 0.768907 0.52216 -0.36896 22 16 14
0.217277 -31.6201 12.5492 0.719133 0.528941 -0.450633 170 154 145
0.355855 -31.6263 12.588 0.730682 0.407581 -0.547705 201 180 170
0.38179 -31.6688 12.5653 0.720096 0.397972 -0.568401 168 147 137
0.464003 -31.5119 12.5714 0.663232 0.348526 -0.662309 207 184 174
0.464003 -31.5119 12.5714 0.663232 0.348526 -0.662309 207 184 174
0.464003 -31.5119 12.5714 0.663232 0.348526 -0.662309 207 184 174
0.524598 -31.5328 12.5509 0.6354 0.32833 -0.698903 199 178 167
0.616884 -31.4399 12.5552 0.697873 0.38025 -0.606946 207 184 174
0.621748 -31.4251 12.57 -0.336496 0.917184 -0.213413 212 189 180
0.778277 -31.3104 12.5142 0.550838 0.286099 -0.784044 192 170 159
0.841577 -31.2562 12.564 0.667406 0.361185 -0.651241 207 185 174
0.841667 -31.2569 12.5643 0.666308 0.360114 -0.652956 207 185 174
0.841219 -31.2534 12.5627 0.665917 0.359749 -0.653556 207 185 174
0.899883 -31.1531 12.5228 0.0589195 0.365358 -0.929 206 183 174
1.0114 -31.198 12.5425 0.665931 0.365868 -0.650136 202 180 170
1.00156 -31.1058 12.5002 -0.0559399 0.330748 -0.94206 209 186 177
1.05796 -31.2061 12.5397 0.614849 0.351084 -0.706187 203 181 171
2.52186 -22.4496 9.78367 0.58722 0.794751 0.153439 155 141 132
2.97912 -23.709 10.309 0.567803 0.325739 -0.755972 215 196 183
3.10384 -23.9767 10.3955 0.685299 0.507477 -0.522333 154 120 104
0.0867223 -31.3536 12.5124 0.735551 0.403895 -0.543905 44 35 31
0.150397 -31.5343 12.5519 0.762629 0.526544 -0.375697 105 92 86
0.32609 -31.5155 12.6062 0.698574 0.690321 -0.188286 204 182 173
0.561012 -31.3787 12.5809 0.588213 0.29696 -0.75221 206 183 172
0.647922 -31.23 12.5797 0.703062 0.387662 -0.596172 209 186 176
0.7127 -31.3416 12.5775 0.659015 0.500025 -0.56185 204 181 172
0.709719 -31.3294 12.5726 0.673561 0.424664 -0.604959 204 181 172
0.709719 -31.3294 12.5726 0.673561 0.424664 -0.604959 204 181 172
0.774942 -31.1142 12.5528 0.707921 0.395014 -0.585501 207 186 175
1.40789 -31.0096 12.6343 0.700395 0.408685 -0.585169 203 177 168
1.3919 -30.9757 12.6195 0.671052 0.379582 -0.636873 201 174 165
1.43701 -31.0234 12.6127 0.688112 0.397113 -0.607292 199 172 162
2.29814 -28.3097 11.8227 0.37128 0.837841 0.400217 144 100 79
2.27567 -28.2897 11.8276 0.361811 0.831447 0.421649 143 104 85
2.35357 -22.5826 9.87012 0.445701 0.471431 -0.760988 82 76 76
2.79192 -23.1989 10.1525 0.601891 0.787867 0.130355 194 174 163
2.93686 -23.6791 10.3122 0.610505 0.401943 -0.682441 202 185 172
3.04022 -23.8538 10.3826 0.704031 0.519231 -0.484499 193 168 155
3.10571 -23.9673 10.4641 0.72825 0.657432 -0.193484 138 106 91
3.11579 -23.904 10.464 0.530313 0.330584 -0.780693 123 85 68
3.12347 -23.919 10.4448 0.541845 0.340599 -0.768373 117 81 64
3.19797 -24.0076 10.4987 0.594229 0.727637 -0.342691 120 79 59
7.06797 -25.1186 11.572 -0.753565 0.519847 0.402367 35 57 36
0.124054 -31.2617 12.5527 0.710499 0.569743 -0.413017 162 146 138
0.30287 -31.3429 12.6412 0.777115 0.545592 -0.313722 211 187 178
0.630805 -30.9415 12.5545 0.650564 0.740332 0.169337 219 196 187
0.634547 -30.9326 12.5497 0.629919 0.750942 0.198212 218 195 186
0.706498 -30.9561 12.5323 0.699812 0.386431 -0.600779 209 187 177
1.33071 -30.8992 12.6329 0.70944 0.419216 -0.566526 190 163 158
2.84435 -23.3279 10.269 0.705815 0.704945 -0.0698401 164 144 135
2.94649 -23.5783 10.3483 0.723954 0.677553 -0.129665 183 162 150
3.02719 -23.7579 10.4216 0.654201 0.680335 -0.330402 164 137 123
2.9891 -23.7405 10.3944 0.72383 0.672082 -0.15613 187 167 155
3.13613 -23.9369 10.5133 0.728121 0.656482 -0.197155 119 83 66
3.15148 -23.9329 10.5068 0.72915 0.653099 -0.204455 116 80 62
0.306657 -31.3426 12.6545 0.781603 0.552233 -0.290061 211 188 179
0.776828 -30.8108 12.5441 0.695865 0.382061 -0.608113 214 191 182
0.777232 -30.8144 12.5458 0.686104 0.373048 -0.624577 213 190 180
1.18796 -30.6197 12.6058 0.773714 0.536777 -0.336507 140 115 110
1.18796 -30.6197 12.6058 0.773714 0.536777 -0.336507 140 115 109
1.26567 -30.7917 12.6342 0.771377 0.531941 -0.349308 142 115 112
1.25812 -30.7275 12.6098 0.776486 0.571636 -0.265144 146 120 116
2.98935 -23.7267 10.4409 0.683515 0.442318 -0.580656 152 129 116
3.28694 -17.6792 8.38382 -0.256051 0.44731 -0.856943 42 36 41
3.46129 -18.1277 8.56553 0.453361 0.293862 -0.841492 48 45 53
3.45497 -18.1143 8.55302 0.561815 0.369605 -0.740105 47 45 51
3.52765 -18.0225 8.56535 0.617512 0.408726 -0.672028 55 54 58
0.291734 -31.24 12.7214 0.793613 0.556178 -0.246668 209 186 176
1.04793 -30.3706 12.5591 0.733194 0.438571 -0.519694 213 192 180
1.44441 -30.3788 12.6087 0.310936 0.233785 -0.921229 208 181 172
2.17875 -22.292 9.87694 0.740734 0.499901 -0.448789 130 112 97
2.6393 -17.489 8.2625 0.160731 0.234094 -0.958835 98 50 59
4.39634 -20.8003 9.73608 0.626887 0.471844 -0.619981 77 17 25
0.244877 -31.1266 12.7209 0.783061 0.486309 -0.38771 204 180 170
0.439799 -28.415 11.8201 0.427743 0.814633 0.391675 210 186 174
0.416926 -28.7501 11.9383 0.300274 0.951478 0.067272 206 182 169
0.442864 -28.4975 11.8432 0.290677 0.906515 0.306166 209 184 171
0.468643 -29.1298 12.0799 0.738917 0.673778 0.00505507 209 184 171
0.603625 -30.7965 12.6738 0.63913 0.747115 0.18257 217 194 183
0.929481 -30.1049 12.5018 0.781083 0.557712 -0.28083 212 190 180
0.981483 -30.2168 12.543 0.647332 0.353188 -0.675441 206 184 172
1.10952 -30.277 12.5946 0.620571 0.324714 -0.713759 137 113 105
1.10869 -30.2717 12.5921 0.612439 0.319646 -0.723011 139 117 108
1.10869 -30.2717 12.5921 0.612439 0.319646 -0.723011 139 117 108
2.1106 -22.1446 9.83835 0.746138 0.520207 -0.415528 127 106 90
3.01819 -17.4903 8.37057 0.484367 0.314916 -0.816221 34 29 36
0.154117 -30.9093 12.7258 0.776194 0.464383 -0.426464 192 167 157
0.395223 -28.5762 11.9318 0.4019 0.915538 0.016351 210 186 173
0.395431 -28.5779 11.9326 0.410874 0.91167 0.00635982 212 188 176
0.418508 -28.8516 12.0249 0.0839066 0.849203 0.521358 210 185 171
0.39983 -28.5027 11.8919 0.339877 0.93938 -0.0452708 212 188 177
0.418508 -28.8516 12.0249 0.0839066 0.849203 0.521358 211 187 174
0.444752 -28.5139 11.9268 0.466506 0.883896 0.033176 212 188 176
0.607324 -30.6408 12.6714 0.661477 0.744113 0.0935114 210 187 176
0.604918 -30.6552 12.6769 0.634412 0.749384 0.189593 211 187 177
0.604828 -30.6519 12.6766 0.632973 0.750108 0.191528 210 187 177
0.859602 -29.9699 12.5039 0.556677 0.2978 -0.775517 207 184 173
1.04479 -30.1642 12.5917 0.650003 0.347733 -0.675705 158 136 126
1.08093 -30.2575 12.6334 0.6243 0.331219 -0.707491 133 111 101
1.07871 -30.2482 12.6272 0.720494 0.418495 -0.552948 147 125 116
1.96057 -17.5511 8.23345 -0.198573 0.297198 -0.933939 53 46 51
3.55077 -17.8144 8.62268 0.258844 0.406178 -0.876367 45 43 52
0.386307 -29.0929 12.135 0.463775 0.806888 0.365848 203 180 166
0.40527 -28.4473 11.9396 0.700787 0.707775 0.0891788 210 186 173
0.388406 -28.5225 11.982 0.718048 0.69457 0.0444893 209 185 173
0.389513 -28.5024 11.9753 0.708539 0.704373 0.0427822 209 186 173
0.382111 -29.0843 12.1358 0.578267 0.772789 0.261544 202 179 164
0.392557 -28.4689 11.9623 0.681114 0.721614 0.123924 209 185 173
0.393966 -28.4648 11.9604 0.691875 0.714266 0.105513 208 185 172
0.389989 -28.9437 12.1321 0.591152 0.767199 0.248889 211 186 173
0.389426 -28.4834 11.9664 0.69312 0.718791 0.0540783 208 184 171
0.392105 -28.4608 11.9579 0.685829 0.71848 0.115867 208 185 172
0.529777 -30.4848 12.7072 0.828055 0.559532 0.0353562 199 183 172
0.554052 -30.463 12.7117 0.720425 0.692328 0.0408666 205 180 167
0.529777 -30.4848 12.7072 0.828055 0.559532 0.0353562 199 183 172
0.590694 -30.5825 12.7239 0.339067 0.904566 0.258444 203 178 166
0.62657 -30.5873 12.7173 0.359624 0.871631 0.333061 207 182 172
0.628061 -30.5323 12.7108 0.672984 0.730871 0.113665 212 187 178
0.954793 -29.9479 12.588 0.587704 0.296431 -0.752817 177 156 145
0.963084 -30.011 12.5833 0.657393 0.357662 -0.663259 194 173 162
0.919651 -29.9292 12.5699 0.551699 0.294996 -0.780132 207 187 175
0.919651 -29.9292 12.5699 0.551699 0.294996 -0.780132 207 187 175
1.02003 -30.152 12.6365 0.638869 0.337367 -0.691397 147 127 116
1.80192 -17.7558 8.30329 -0.310485 0.196472 -0.930053 98 66 58
3.31638 -17.4045 8.45051 0.641992 0.718593 -0.26734 52 44 45
3.5782 -17.5455 8.56403 0.261862 0.237446 -0.93544 41 40 52
3.64446 -17.7037 8.61896 0.509168 0.324133 -0.797299 43 42 52
0.161876 -30.7916 12.8129 0.794039 0.525473 -0.30558 196 172 157
0.151266 -30.7415 12.7827 0.766149 0.484285 -0.422473 196 171 157
0.347112 -28.9969 12.2039 0.664813 0.746437 0.029259 197 173 157
0.324916 -28.5692 12.0526 0.650821 0.740536 0.167449 205 180 168
0.344463 -28.638 12.0743 0.491183 0.863545 0.114146 203 178 164
0.399854 -28.1979 11.8885 0.721918 0.690095 0.0510262 205 181 169
0.374712 -28.1867 11.8905 0.67403 0.727509 0.128119 204 180 167
0.379866 -28.1974 11.8977 0.700992 0.707877 0.0867196 204 180 167
0.386656 -28.5124 11.9837 0.712603 0.6983 0.0676278 209 185 173
0.379866 -28.1974 11.8977 0.700992 0.707877 0.0867196 205 181 168
0.386656 -28.5124 11.9837 0.712603 0.6983 0.0676278 209 185 173
0.383859 -28.2369 11.9171 0.721452 0.69043 0.0530341 206 181 169
0.374643 -28.1998 11.903 0.684081 0.72306 0.0960116 205 180 167
0.380907 -28.5095 11.9877 0.718357 0.693879 0.0499486 211 187 175
0.368207 -28.1837 11.9009 0.693979 0.712198 0.105673 205 181 168
0.37489 -28.4904 11.9835 0.724002 0.687922 0.0508295 211 187 175
0.383859 -28.2369 11.9171 0.721452 0.69043 0.0530341 206 181 169
0.371241 -28.3773 11.9661 0.508683 0.860941 0.00475295 204 180 166
0.380907 -28.5095 11.9877 0.718357 0.693879 0.0499486 210 186 174
0.37489 -28.4904 11.9835 0.724002 0.687922 0.0508295 211 187 175
0.490877 -29.9027 12.5623 0.773481 0.630452 0.0652489 201 185 171
0.570932 -30.2754 12.6842 0.756145 0.65192 -0.0569602 211 188 175
0.522385 -30.2292 12.6671 0.728751 0.669704 -0.142894 205 181 166
0.543978 -30.0497 12.6128 0.585891 0.789491 -0.182853 210 187 173
0.567442 -30.417 12.7216 0.719219 0.69366 0.0394932 212 187 173
0.557857 -30.418 12.7172 0.706731 0.704062 0.0694883 206 182 168
0.558748 -30.4243 12.7196 0.707328 0.70393 0.0645802 210 189 176
0.571405 -30.354 12.7168 0.714988 0.697519 0.0475377 210 186 172
0.604565 -30.1106 12.6462 0.727154 0.685154 -0.0425645 215 198 185
0.585684 -30.2826 12.6931 0.7512 0.659627 -0.0243075 217 196 180
0.581781 -30.3301 12.7121 0.730359 0.682966 0.011547 215 192 176
0.596385 -30.3559 12.6992 0.748619 0.662787 -0.016795 206 186 175
0.584039 -30.0186 12.6127 0.702404 0.710551 -0.0417828 208 189 177
0.825465 -29.6876 12.4986 0.502087 0.234581 -0.832394 214 191 178
0.845838 -29.7512 12.538 0.765362 0.487178 -0.42057 219 197 187
1.04625 -29.9238 12.6459 0.620516 0.358048 -0.697683 88 69 62
1.04654 -29.9586 12.67 0.774839 0.553852 -0.304751 88 70 63
1.73505 -29.0969 12.4868 0.327765 0.213575 -0.920302 199 168 151
3.11761 -17.2255 8.4003 -0.169992 0.931258 -0.322275 85 69 61
8.2681 -22.2187 11.1891 0.499254 0.44937 -0.740819 45 36 31
0.0126634 -30.3652 12.7096 0.664904 0.32609 -0.671988 181 157 143
0.0243095 -30.4509 12.7233 0.727564 0.380214 -0.571042 180 156 142
0.0881523 -30.605 12.771 0.72991 0.390985 -0.56068 190 166 151
0.0613655 -30.6133 12.7734 0.788353 0.614758 0.0239267 190 167 155
0.344 -28.2642 11.9555 0.679374 0.721961 0.131236 204 179 166
0.328555 -28.3173 11.9893 0.670422 0.728506 0.140762 203 178 164
0.330033 -28.2992 11.9816 0.679288 0.722966 0.126047 203 178 164
0.330033 -28.2992 11.9816 0.679288 0.722966 0.126047 202 177 164
0.32657 -28.3129 11.9904 0.702374 0.706501 0.0867576 202 178 164
0.325364 -28.3127 11.9932 0.684081 0.718718 0.12441 202 177 164
0.320741 -28.3154 11.9943 0.684424 0.720217 0.113359 202 177 164
0.319856 -28.2981 11.9921 0.667043 0.731531 0.141129 202 176 163
0.314956 -28.3078 11.9977 0.682065 0.720014 0.127936 201 177 163
0.320741 -28.3154 11.9943 0.684424 0.720217 0.113359 202 177 164
0.314956 -28.3078 11.9977 0.682065 0.720014 0.127936 202 177 164
0.430937 -29.5407 12.4692 0.618195 0.758951 0.20452 196 179 163
0.472328 -29.6364 12.4907 0.689523 0.716005 0.109068 206 185 174
0.450259 -29.6641 12.5001 0.713217 0.699162 0.0499396 210 186 169
0.460753 -29.8388 12.5597 0.754907 0.653512 -0.0551158 197 177 159
0.487248 -29.5444 12.4887 0.666654 0.7337 0.13137 212 189 179
0.522525 -29.9188 12.5982 0.763591 0.639853 -0.0867058 208 188 176
0.502848 -29.5985 12.5033 0.672596 0.729447 0.124591 204 185 173
0.686184 -29.3808 12.4292 0.698163 0.381397 -0.605892 214 190 177
0.90732 -29.7243 12.609 0.767386 0.491377 -0.411908 138 118 109
1.23522 -29.2373 12.5202 0.295133 0.197263 -0.934871 177 156 141
1.45162 -29.0405 12.4931 0.134153 0.938578 -0.317922 202 171 156
1.57407 -29.046 12.5003 -0.15211 0.796038 -0.585821 203 173 158
1.66321 -29.0425 12.4854 -0.142166 0.943375 -0.299721 211 181 167
1.78534 -28.9519 12.4936 0.0808253 0.203615 -0.975709 180 150 134
2.11345 -17.3255 8.3099 -0.480768 0.163422 -0.861484 113 61 63
3.19706 -17.1771 8.46028 0.650779 0.712422 -0.262568 36 31 35
3.31269 -17.1623 8.47455 0.37708 0.290759 -0.879358 27 25 31
8.36598 -22.2324 11.2562 0.496931 0.448451 -0.742935 116 99 84
-0.045193 -30.2455 12.7085 0.666275 0.32312 -0.672065 172 149 136
-0.0467985 -30.1932 12.7073 0.61534 0.279827 -0.736922 180 157 143
0.0517713 -30.3303 12.7564 0.79295 0.580131 -0.186223 196 171 155
0.274022 -28.4122 12.0722 0.671726 0.727318 0.140685 193 168 153
0.274022 -28.4122 12.0722 0.671726 0.727318 0.140685 195 170 155
0.273741 -28.4393 12.0889 0.691657 0.714063 0.108285 194 168 153
0.250244 -29.7095 12.5849 0.692822 0.714529 0.0971926 188 162 147
0.268074 -28.4565 12.0989 0.6849 0.719518 0.114914 193 168 153
0.273868 -28.4693 12.1059 0.69152 0.713268 0.114234 194 168 153
0.266835 -28.4487 12.1006 0.683416 0.720549 0.117271 192 166 151
0.26197 -28.4521 12.1042 0.688029 0.71563 0.120374 191 165 151
0.251463 -29.7209 12.5876 0.687333 0.718419 0.106998 188 162 147
0.266835 -28.4487 12.1006 0.683416 0.720549 0.117271 192 166 151
0.26197 -28.4521 12.1042 0.688029 0.71563 0.120374 191 165 151
0.287693 -28.3746 12.0449 0.684286 0.718331 0.125512 197 171 157
0.366086 -29.4556 12.5145 0.625945 0.753018 0.202872 194 170 154
0.433647 -29.4701 12.4949 0.531336 0.795181 0.29218 207 184 171
0.386515 -29.4425 12.486 0.562355 0.783312 0.264914 202 179 164
0.392082 -29.49 12.5094 0.560744 0.783945 0.26645 204 181 167
0.442943 -29.4584 12.4958 0.623488 0.759196 0.186774 207 184 172
